-47.00954265724096,-145.588121048985,-64.25882925096063
-54.360331634521714,-48.09069862325711,-60.05628157984761
3.7283977966354342,-71.86452799068056,-69.70017583573652
-11.404343465998792,0.6386322004255973,-50.3390062752873
-94.990392357831,-120.43179406978848,-36.0558218400386
25.19717261075182,6.879692289446318,-43.42663067414531
-51.23286772419864,4.145512932616725,-44.87263173956245
-13.460163948959966,-66.77367351003211,-41.672322011930575
-143.25698837951666,-19.43871348328984,-58.56387886275307
-51.14191356151162,-33.81735384245188,-65.0515862350228
-16.530146846353396,30.460998386040472,-59.20658455191602
-19.4982311942677,-39.02304998453804,-52.41248140327989
-48.54489341627415,-65.58784700672143,-40.56773021045127
-43.392183339154876,-46.69545493580189,-61.34411731230456
-54.46257777407959,-56.6021337999462,-43.03460623625927
28.26012156754038,-64.06041463660763,-55.84015234787063
10.321332181554837,-31.192689097998933,-32.303109897661976
-47.422977144475716,-65.8541403844182,-56.095902727676936
-54.7816220339382,-123.98212361819151,-58.35883244572562
-57.77951005607795,-11.880554502384598,-33.201723865283256
-52.84043624839007,-51.980010690093806,-48.948395174355305
-59.167574206798726,0.9869874642288607,-59.145842980879166
18.89824187549904,6.551423895083666,-54.45957911555971
-42.79658561997769,-46.78551507964812,-34.080544141825754
-89.2890745886233,-64.74070178361954,-45.79779793416921
-1.9967023347448318,11.033471894104345,-68.44579204957066
-23.046743001515164,-14.56593987966194,-61.835420570164956
-6.276501032118041,-64.284095351492,-58.385743800639844
-79.05690960937356,-38.262134943963886,-69.57147928513662
-100.6867231848015,-100.58190072510543,-51.71384900820634
-40.97819186335053,-44.99613222662057,-68.2227781044241
-42.934686128112205,-100.16527376288062,-57.353921532025915
-50.75753122285719,-28.41474450139624,-40.11982489091329
-44.87431613771423,-38.370060909753754,-35.81848562913342
-49.659998832875154,-56.865151979577476,-67.07091300688663
19.71118524316202,-21.821100337374116,-61.71007806477582
-53.8716570979725,-49.64659094996751,-60.29576812957863
-54.32798756177477,-60.37494912942217,-47.976111459386644
-28.089439619747615,-49.363180763008934,-44.94284237987821
-113.8145207977992,-31.22214582085447,-53.01778433235124
-60.86169010167423,-66.07023510497235,-61.105875500809134
-124.68647289240457,-5.770926907096829,-49.69371414048182
-28.103958416717234,-122.37805657821359,-32.616887035604904
-45.03174211359636,-9.586880196506968,-48.10949007184809
-42.80095267374776,-104.24114054982087,-57.14470222129401
-131.83109373621232,-107.00926984571362,-63.32837272594084
-45.436422528423144,-71.91972133330759,-56.99401586476043
-121.53788378178038,-47.146909031340115,-36.140403754898955
-40.21631916423563,-105.28264854555226,-31.56240317786429
-56.847453792860136,-25.557691638701243,-58.10566483247056
-142.9770609862195,-37.83747584532318,-64.42260660133911
14.434198304309433,-120.43001262481836,-44.59828069957409
-134.43428194763857,-44.525347977439644,-50.03596768418934
-42.28772970634604,-104.52137814343033,-44.390686855770284
-15.652755343860768,-125.44166978351396,-56.38356064735049
-100.01019181670625,-65.73471597615331,-56.34511635834823
-9.446174525688086,-48.34265289258817,-54.06627178272363
-32.138933585040775,-58.89716803088678,-32.41279947030833
-19.43649336290415,-94.97982609121254,-43.219637703309765
13.334773731689047,-9.969447582081607,-60.12133932104834
-25.70937000762863,-20.406226977778974,-53.69922696324614
-85.61117934651648,-118.71006251973492,-67.28980554916225
-32.3104717440027,25.12049849001454,-66.11144931336742
-36.29602072302449,-53.92166410215845,-57.22221013384293
-34.77325256589208,-49.87272537404714,-61.6448752654056
-37.31427021750187,-48.765565017443365,-67.14865444298923
-71.75069261697854,19.289590328934835,-69.46828164487658
-3.393370313100604,-99.48788883276697,-69.67364574252377
16.968299183498686,-120.29730412985442,-68.803632702648
-50.63620988176651,-50.55269112745892,-65.04679191975424
-96.95122189054817,29.97016625702979,-32.84392193557337
-41.22095990036753,-55.67958720141431,-32.90341583941597
-49.86653184638574,-30.17933367734755,-30.888950371097188
-31.410890703908848,15.041695414750919,-37.70369264935066
-99.34749801201464,-7.9958213613114,-68.96863123776765
2.916630745987753,-128.97316111934347,-55.74683111208351
-36.907898134157875,-117.94653765024356,-43.337485158369276
-67.37994887679199,-13.26894657105737,-41.9729571004666
-72.18545924795532,-50.04257365210652,-46.996052573655916
-37.85260970514302,-17.9011029922897,-32.48079797685523
5.370454171883402,12.772525558314165,-60.72375781964482
-6.3190405904764475,-26.860750502298266,-43.06115691056315
-13.63337298891043,-117.89510483073569,-58.33403078944972
22.552262928155216,-65.45833386156758,-54.071066117864135
-105.8946863897514,6.417309296812434,-47.83445203386719
-70.22920109523972,-54.95135614895188,-51.49521253044261
-93.622427306573,-54.69634115974134,-38.37516087696031
-50.49177466299482,-112.87600780854687,-31.12135223161659
3.5892466452058045,-59.052697440303746,-65.20002099861946
-49.75562288233789,-50.09534090296214,-64.08945949125172
-33.16644232559233,-49.73107106374433,-64.37360135570914
-60.45863920858673,-28.023604818444078,-32.170057456241004
-19.718655908632947,-108.0589763863601,-61.63662770044267
-119.14611652205384,-0.27809797066872477,-42.76461653866784
-56.610871670239646,-66.1217296329891,-63.78626998579227
-42.250103990819966,-48.83564484324087,-44.13508805372852
-121.54113399914992,-25.785162599972217,-30.61713555899411
-108.38924693356662,-32.693621644716266,-60.54079986762162
-21.495480505914013,-65.08779513317985,-42.085890992321524
42.98346315205322,-47.2960299686932,-67.38506390363966
-21.75377490606468,22.721013929139005,-64.59842712971923
-38.01230323054244,-142.47244730498244,-53.52641290297967
-59.03310193658804,-26.467852588398966,-40.90612721240516
-50.6277313209061,-46.75904379532293,-42.13993186492273
-63.13976467389241,-78.21630273912213,-48.03718284331424
-55.84457689232121,-41.27230016824597,-62.198312666723226
-29.616798645490725,-23.590957256395516,-59.14126534352821
-124.45623850478772,-69.4055789883246,-60.85643555557964
-32.076818230699615,40.45770320068398,-36.311252966554825
-16.884007551260332,-138.201478488534,-48.59779508582302
-86.62040826982066,18.950327692108544,-54.05868913886584
-7.838132993061997,-95.6425501070368,-30.97506580213103
-49.863049476216794,-50.41853737353666,-36.70359210110059
-14.236725648077915,-51.10771761547721,-38.79441762525194
-87.28660042407444,4.35121621349689,-56.507919711439826
-113.98261656407877,-32.640109232262944,-43.291633352415296
-18.90314583554174,-77.63131928591685,-32.59754304411234
-31.10982504270203,3.5711006012986743,-32.51164409255888
-48.15156566003178,-53.10667850961438,-59.69843847571728
-50.813901898156104,-29.689437696922166,-56.62831825847951
-49.99330058359203,-18.857071050800233,-38.72079722246021
-54.402949194080556,-112.10522438336751,-37.548814535715906
28.371818530692693,-62.88207065807332,-44.06928646782714
-35.542622982017846,-63.32715814034022,-32.398273954961084
-47.65589458172388,-66.80232225437798,-32.009693898503656
-13.571074181632788,-59.47080868847696,-62.51992278529832
-67.32576443847938,-31.306095046576885,-56.80924215929142
-15.357016233455496,-124.25583187447936,-59.03190259268699
-138.39859875405773,-54.28058258139993,-44.628642615838054
-51.089214786632205,-51.267499816479585,-64.65937214489179
-61.74193574062068,-108.43743129202622,-69.68821357589133
-56.78985906615986,-32.39377840474656,-63.67321396682423
-49.90076168015828,-49.418027372775796,-62.77323704299094
-26.42892130528364,-73.39903007374802,-51.12708063252375
-92.11383452274409,-50.44250212639961,-39.45531178648953
-133.62753929788266,-14.833181466755903,-63.20850651988866
-48.813081473594536,-48.96976465303896,-56.06333636730013
-3.1573379938768156,-75.94960655115453,-56.505147242725194
-71.59380941534948,27.812759715076638,-56.46041697924297
-30.265254895106633,-115.0932272983543,-54.47012930333564
-55.18714456231802,-50.80520072041639,-57.78774963999738
-22.488973416471826,30.999767030899974,-44.73969504745261
-73.85490806050339,-55.35729762146644,-33.72695897304517
-45.08107251253432,-48.363298428121205,-63.317329112881865
-27.01230031899148,39.01039127245659,-64.50158391755375
21.365972163229628,16.167441705166993,-53.26322707435852
-77.47747749314823,-54.554344154488305,-40.880395278911195
-35.68092310151868,-64.18079084384037,-38.03464469620636
17.851532331154615,-67.82943361139894,-51.096416762127426
-115.47242385676851,-69.17753876446753,-58.009016899999146
-44.84568424763124,-49.64259461326458,-63.890862987256995
18.110063524404538,-23.464618386427507,-46.05122460093127
7.9043645209920115,-124.52383868263605,-40.63145461816986
-36.87920948251059,-49.91164633399194,-40.32382625300991
-75.50134338392903,-102.84440384159907,-47.405492550015204
-0.5683469688950495,-25.56601140287486,-33.34770002746194
-9.605821832122537,-33.98614206713013,-55.24415115536809
-128.6536807970802,-30.995196726621966,-56.50390268769277
-41.20869273546594,-39.55797518086824,-34.018230560498
-37.94740172258239,-105.20702322230358,-51.75553903986915
-37.49341173936942,-54.93934092357643,-41.29129125868174
-72.50637785661786,-103.74342852586324,-49.49417708780341
-31.95003914290728,-55.806258775398824,-61.216268461579624
-83.91277762586233,-58.151125135439024,-31.370000275525488
-45.687360569487595,-94.55853386303176,-37.07032728299643
-84.62235610901783,-106.63958043036193,-35.78775339323901
-54.06272286021295,-49.41155576385563,-52.02941607648559
-16.602996230152463,-81.17731228901508,-46.1414775097735
36.73152086412547,-74.39676134985915,-56.82323450488098
-46.64947875616387,-57.670147357741016,-52.132558870179544
-13.666792351182032,3.290012424245411,-33.36271135137196
-49.58051750371687,-50.98083198614858,-39.573804417452216
-51.607629399263416,15.30733270737737,-68.69065108689861
-98.79975115341534,-21.187301847449778,-47.395236335519286
12.463574280911153,-61.305245744589755,-58.27779382183984
-2.637525872135207,-80.05175633132451,-40.47318402395806
-36.65056981758967,-133.50795025206205,-37.3509951834787
-56.50436955920646,-30.070570258852978,-30.708528430508625
-65.75211969769103,-33.78181698913289,-41.9224513646885
-57.775955228448915,-73.28907976310606,-43.65357173967008
-14.984517418094264,-107.89432132314101,-35.00849781343174
-56.06357770897226,-141.89020808463803,-36.95975581602377
-56.930270078901245,-40.782216507123344,-63.3329552256494
-44.3998447031753,-24.676321642266785,-48.32505008492666
-11.919349846096623,-96.04910472205617,-58.643039959393704
-28.854801613071082,-31.85969462385607,-41.19997612211779
-41.32183464273315,-147.33208938978765,-35.16772772056928
6.6690878924093795,-65.78556047712047,-43.10701545654008
-49.83598681618208,-49.95111190230373,-31.95479020654922
-85.60137416811932,-72.4699451865484,-33.94835130428673
-63.37440938611197,-110.87801567046193,-44.8567484906456
-50.197091392164836,-54.320460247611074,-65.32534616322629
-114.78333711151905,-121.04533594293352,-40.47797888163353
-40.079646089976734,-68.45730585997313,-35.98857737514027
-144.45711784415636,-25.972990753289693,-60.09780429076203
16.207677067013236,-21.812929063709984,-44.87117056618029
-32.32433862579544,-68.15674352731999,-37.27253122353601
22.891632659580324,4.246435460902845,-35.24320312314212
-51.05919649566291,-9.268903357232979,-48.05776504040314
-99.86886508753744,-50.83829395153348,-64.39773831118907
-33.33037375469886,16.7799656394931,-65.09469219700617
2.7402346609056494,-33.28460381766547,-49.39639425558775
-40.50537553329265,-46.55062530390121,-66.28878049500847
-35.36414586854094,4.439802845504779,-31.023684190830302
-53.22437600670026,-25.600422705669498,-50.94964917493691
-101.44465072106786,-48.86430130243753,-45.68883204805589
-34.98960352803684,-52.765976296226846,-62.79505694663818
-48.344308479836066,-49.732330927350084,-57.25912165868573
-95.32699918622642,-1.1919685481930102,-63.52314445025008
-95.53012686413174,-45.641889201811935,-35.194167424721066
-87.74750965598756,-125.25967695137135,-55.18153621029281
24.99265083925779,-38.59617287966394,-46.4979820160306
-34.38194225160705,-83.4354374380168,-41.10903624962759
-36.05192913232376,-112.78815596200681,-53.68301889772575
8.02548107496176,-88.03488979952886,-59.556023532874235
-47.26299529190215,-74.07142155056268,-63.03240032984526
-82.56384602255619,-92.22977478327138,-31.832709266355753
-59.11777698839933,-123.30231996892326,-59.27107370184679
-91.22426685184239,-41.12967774773314,-66.10793956714315
-66.72146942502303,-2.2807515421346523,-46.24417078231799
2.7003663235991624,-28.589993206806202,-54.52863370813082
-106.81935029373554,-27.74697234199013,-51.92710618677326
-66.99637119433271,-29.789925631444163,-36.76841471062372
-99.60578041592188,-84.78812450155374,-42.720523890992865
-32.8065463688516,1.104637451660473,-34.297785310585915
-87.59011034499324,-139.9642087021058,-54.07777097217845
-35.697362153255284,-103.47933686073281,-30.02277595113647
-110.40594519067983,-123.97429345496558,-53.91574429309585
-90.44279743141222,-11.454252482627503,-68.77886920531438
-61.438715903348196,-34.93737248664298,-52.750629634387195
26.35806333001871,-15.46376965781613,-51.589569949628086
37.30831322763167,-49.01834979301194,-67.62652878451007
-115.7197887327565,-71.51559144430438,-50.175808923498394
-59.85722864953472,-18.024494736337953,-38.9262071436851
-84.67350668174129,-115.8608668112737,-50.36108363017182
-36.07679403748436,-63.31849562932456,-52.97413912036807
-29.952156719473034,-59.81029813779362,-53.220279228022434
-45.440044393171945,-52.500823880360144,-48.70814831410124
11.27186585171173,-66.91763074662353,-35.03419849917613
-18.385880804811933,-109.63755183647987,-68.23074083302316
-112.72194928680501,17.82135790858058,-57.24299262631113
-78.37023081652532,-122.42358444525102,-64.41093411381405
18.769294051988936,-94.5838837085451,-63.582606340863606
-104.03319678041387,-31.976364506567975,-39.78929684044519
-12.959135460600585,39.756862824647826,-52.50062572376652
-38.883225211623795,-99.64995294406232,-62.949372762325304
-16.53895817878147,-65.29824128221587,-63.116914430379005
-30.185859228392403,-31.46993868133743,-46.25130735192985
-21.71030167495663,-70.89277578696493,-52.47956740701498
-49.38757705409947,-46.080723635927285,-63.192046320948634
-24.61225885059754,-125.96731906628314,-56.15925733272871
-68.60356776856958,-42.77117398675032,-64.33176554115461
8.07487527665289,-64.30733989060877,-58.865133486558925
-22.274646105072332,-30.820408292431573,-36.08140049408737
-30.87681309493132,36.73728207981188,-60.31387950808602
-41.02756484250192,-49.73624642956165,-35.21092760137216
-138.3821850427789,-28.423579972391984,-37.872998582972436
17.57090854920382,-30.320973136448547,-54.49501469417706
-75.93816655867964,-76.9444107371657,-65.05877589125932
0.22249971430022697,-130.89954007552572,-56.985343267904554
-49.25278068043497,-108.44601166565906,-67.59377726045727
27.733153966713317,-69.05240986875191,-48.03938252892774
-41.44334455481693,-87.34349390971803,-62.346742554423784
-113.55098274517655,-28.21691054918273,-58.90163012718459
-49.035522262446186,-46.96575928820207,-60.32226184039906
-7.038383770061863,24.39187055482178,-37.22499431756301
-49.64473409873404,-7.149868386059666,-41.24623750141604
-16.183976216783876,-42.18626318880227,-31.220673883591694
-80.50373041357794,-49.22929646067654,-38.39806618921061
-33.9355697992368,-45.457465838504866,-59.909453862376864
-15.184575016033712,-141.65576336003676,-62.03328926881002
-13.460112210684386,-135.07114704172778,-53.91221215436641
-8.077973398212869,-31.436105585950077,-58.04409709460439
-37.423697108211655,-36.389308323187045,-55.73999697304804
-120.07893727080165,-24.6266606691308,-30.391721179550657
-73.87141990636573,-53.8052791456673,-60.7084891456758
-38.73396500302808,-35.31985484281889,-34.232754936891276
-59.06212682430407,-13.24066778541674,-64.04401305716947
-27.115813648801087,-87.0293569286502,-38.402044104340604
-65.42861490144521,-67.92630978548237,-69.92440862602929
-40.065642617476655,-53.804219843063365,-58.3818753759192
-48.98194127093129,-19.10353113846163,-51.82393347183158
-43.3444607019742,-73.01498429242221,-47.14216619556593
-32.47084055118365,-68.12944224275647,-52.30084874750267
-58.942867921581225,14.601999726558773,-50.42585502532156
-78.17129553688986,14.723818564505834,-60.18924288088897
-15.149278633965338,-45.61790856703621,-32.07632677968656
-50.289132565528355,-50.1304707228725,-44.79497796065079
-31.037296816608436,-15.263171085353555,-41.88292449931545
-39.22887794391556,6.765611772407659,-69.90666247042047
-94.64258507660335,-102.41717721647473,-56.42740685651734
-66.81964564253069,-114.10913419187578,-38.22388485743257
32.98740266831925,-44.84043824859688,-61.096163699076456
-19.49189571321659,-64.94675796736121,-58.71798280250101
-14.287372777409772,-66.46948671134716,-66.92792964245612
-73.63633501577131,-53.84425968321529,-32.24790202383241
-44.219896859321935,-61.56499479621317,-37.816842186974185
-109.83703160708578,-2.72242067779289,-49.66050049625394
-106.38634703034644,-26.021164556545013,-35.73689334479076
-10.310949734725618,-75.32408375875858,-36.30258123395219
-50.10945125907718,-50.105629911214905,-62.60462311568291
-92.92576084749693,-87.2569134569757,-48.78377399277862
-17.224339559776787,-92.84398206928164,-44.10014326085819
-26.37601549610421,-82.0087560306346,-69.70119246726378
18.30218122658742,17.38330010676833,-53.09586467375936
-30.306716900065393,-30.251987127689308,-60.375705835561774
-57.03392548262294,-50.16082002968439,-31.016241255389446
-92.98559349942686,15.17392888505708,-56.43953793149849
-36.12242894065773,-7.982473227279016,-44.393954540490824
-136.382770591132,-83.74634328181543,-42.835912270166475
-68.53064620468766,-76.76855799287996,-40.281784551672786
-102.69395585067974,15.809266796648956,-61.30488475962504
-144.20933151241553,-75.63247311693674,-54.83558845030925
-60.70945346954812,-50.8553637833107,-30.434218243983075
-108.02630555160812,-47.70034195534417,-35.64744861803601
-56.46050710968314,-64.21330679690695,-42.79982638845226
-99.22878915353172,-19.355683256651755,-39.50302634072528
-56.040190643024275,-88.61844734748155,-61.70342988027891
-77.5739462521689,-15.466506141353591,-43.90701140823677
-34.216615963409765,-126.78231307898949,-61.458080292034225
18.07126404815034,-69.42137576803634,-65.5766452927707
-0.7653553878103736,27.44983965151232,-57.50378748725882
-77.69042786668106,-50.13613331087175,-69.13138872189846
-60.109973525385016,-72.71053305055253,-60.217563717149694
-58.20801764507486,-54.090936640107905,-59.47557397676073
-31.919481457139625,-125.36451783272118,-47.2897194748205
-135.50943021635067,-35.67557671129565,-52.25763816170001
8.310768627618259,-96.75090489364749,-30.61765867458407
20.935837269063498,-15.110686521587247,-30.10830393615493
33.53675027603914,-97.51212689378676,-38.696467684693715
26.86236855154067,-63.71868154178656,-67.21173231750359
35.067947702977094,-35.45699762178504,-52.14085786307276
-28.22497302176716,-57.556341678824516,-60.51677595427492
13.923666791111359,-73.78175791695747,-58.95676730201082
-15.303168258834603,-80.84342570783585,-68.18173238893922
-76.45942227844849,-103.8529695283654,-34.24722566592414
-91.8215740859169,-76.57751012801245,-63.61930552150369
-46.388097377574354,-48.49079544843062,-60.11707213148011
-38.437185050406,-47.496503777418624,-37.95196358402866
-59.48159831608211,-63.16820895669499,-43.643044304185295
-55.85083844434178,-67.79666114109382,-40.33777467781667
-118.96103189207192,-95.90835017917101,-42.08700810442035
-99.49099674699426,-91.58373453528806,-68.5517254109867
-47.4186684119163,-32.402642128486804,-67.6609050694156
-63.70529741033684,-33.09309606475115,-56.65671481188358
-99.93589138412766,-15.513904521112309,-62.489051744137605
-91.60205507206834,14.161306411020291,-39.98022059280192
-133.4309399054005,-94.31381380990423,-69.22925248674068
46.319968006696726,-54.95144990292818,-39.53870139755038
-99.11216436806842,3.9070878395621946,-43.839066232746625
-73.75036649860776,-47.04160587629497,-43.5635148750306
-97.67875484941257,-21.262659092133568,-44.00520953204415
-17.11854227818629,-27.026911357401616,-47.39075313791234
6.936484026377478,-63.44319441044723,-56.66964907267206
-52.85062046627732,-50.91816300688546,-42.02468792650604
6.8231886706770055,-66.70030569863307,-56.754861567007424
-33.05029166132314,-40.9800791204342,-52.14374504720405
24.57756981575301,-106.72803664634482,-33.83472519030397
-59.443821536710026,-1.7029509284724966,-47.535699885936694
-81.98132949431417,-42.159867887201074,-48.60944797229925
-28.778133955372876,37.89728296038389,-35.397169995467365
-67.20310887315762,-68.70227546396521,-68.13597377899684
-84.08535508309303,-21.01399687268556,-38.81432177088554
-93.44734640053014,-48.33258999742711,-62.18281822570315
-102.23708901067616,10.91751710003161,-46.63643221618111
-109.12071581514996,-74.54804880701622,-30.426070835942067
-128.21816829681512,-104.38500244230156,-40.26330292151172
-42.23096659402646,-49.757467934871784,-66.34316767023265
-2.196325103541696,-16.749898619404597,-35.68077871332156
-26.608544932640893,-82.84068616037331,-41.97051872537346
24.537994678394256,0.8133252769263137,-63.87416168273485
-24.055934128013796,-50.458221077891466,-61.10493706883226
-18.391232495301825,-25.930698885053676,-64.0253611005187
-24.651770117509454,-15.932279551555276,-58.9629213728616
-50.726358706747575,-47.99390466918269,-53.438900150710076
-85.87454224368776,-47.618654877134176,-60.516455003523845
-131.10993925867058,-8.346387638242057,-58.11561153594833
-21.39246192967225,-12.013108653969944,-36.80954012173176
7.41577835177258,-90.42447825443762,-41.17114075500557
-79.5461109466161,-73.12740260921746,-56.680498926810294
-104.77811455124237,10.001682259920841,-35.367510083544985
-84.42195411999089,-90.63580803675376,-67.9372009890221
-50.124986213415504,-47.985002578615465,-39.8594182314168
-78.6370782464868,-28.29604184886222,-51.89296061945665
-48.35327587279723,-108.3335408571312,-46.12412017676503
-59.92546148594851,-11.153702084909568,-39.14295169792937
-128.54114422422475,-82.89271979516926,-37.64643565525772
12.80818730935541,-12.199525025321499,-33.63452065178494
-72.23586482454472,11.375931404213965,-54.32486900997707
-127.16252001294139,-21.022920081629223,-69.06317898802874
-78.51481427944408,-77.34730149741193,-37.6814333888184
-74.34263687449034,30.511681201675856,-33.178305661700975
-95.49600224114204,-39.950491441477645,-36.001863034980005
-39.99252323698586,39.25524199490971,-55.21695813262378
-92.94329340084323,-74.88094343445273,-44.5897463354329
-22.162791328757372,-83.13849431161671,-59.43699462535553
30.658141631084717,-106.81613927419095,-68.50774590449201
-58.98316266459508,3.919868550984937,-32.645950105185335
-73.55116014307994,-20.771558029054148,-38.68451200549662
-98.1233671175716,-16.0453567436492,-33.699871365659575
-58.9104511777291,-60.26385144611294,-63.762403406237134
-147.6915353080463,-70.07106736162763,-65.9318213742704
-108.23815840503363,-126.82097882742038,-41.062927392681466
-93.55408123291973,26.30169480798233,-35.65750519224348
0.8681480158066677,-65.06115551065963,-57.42172129067119
-131.21958012262434,-26.2721325378459,-38.00622433962552
-57.698070299073464,-49.77173430295774,-58.26588399257357
-91.40554253569404,-91.02139099529789,-54.37590401765173
5.9472203523014,-20.25238574615746,-44.60907470739711
-32.93096398229959,-15.160200697119613,-45.37682991876907
-47.02743789303628,-43.947297969266025,-35.628460591412136
-50.36278238939133,-48.74952226763477,-50.33164144404404
-92.33569874489196,-79.76433529209007,-68.10839976982462
-36.91600867099669,-145.51169837488487,-62.7970357488032
-76.67777902798116,-78.99676211858659,-62.06517905416686
-71.92470416792062,14.950561049565493,-35.40238417228552
-21.164253801547563,-79.76385390956328,-46.56763819225402
13.941428779427426,-77.53362612808645,-40.13269918316264
-47.02321881410655,-45.94587916863059,-60.4651789479464
19.57570742436205,-116.5195328847137,-47.129411791249154
-38.11165294638238,1.0218212589697444,-50.50374557520026
8.726214486912973,11.996621515882083,-34.2285163594583
-51.944919663608275,-54.656362097106125,-60.22708331435098
-54.514173161679565,-87.69524711023422,-35.39008970221326
-101.78325818503811,-57.74727062187611,-53.44705104776949
33.382407174960775,-46.39370203113563,-58.050918248675536
-22.091420462561725,-84.23274188840178,-66.17879885599382
-71.68826838696444,-91.3144490286339,-69.93689743924674
-8.159142282410919,17.85664026201121,-59.82606668266484
-31.687289046784443,-124.37875663483274,-56.101833351756724
-51.415681230958754,-58.60631878662484,-37.340344582634536
-41.90736469671193,-56.993741699831375,-58.44813394274844
-81.1802175040769,-96.56587138126977,-32.260851947578956
-71.75777911156794,-116.23935508615864,-56.76315856487083
3.7022332641102835,-7.195210547730859,-53.59752074333481
27.82520232085122,-50.44099184256087,-53.73524333862327
-127.30505037477181,-95.56016717537523,-37.54734200402284
-76.84746508147053,-79.71280948258055,-60.23532062038555
-50.74773687781544,9.806307897146844,-60.530690115466605
-46.7469006824645,-31.669405511041365,-47.64226410542722
-36.56944368362103,-71.89490942150695,-44.12824975479298
-125.83750452806088,-78.57896107687783,-61.50836988903785
30.96759292747099,-44.99833381741345,-42.703465923145906
-66.51063254791394,-32.00799782474149,-33.64459293424622
-22.27043687303102,-31.43552682938173,-56.600996101452125
-54.61402571769402,-68.58903231701586,-38.981616857408845
-134.67016817691768,-80.94122198807793,-49.74944843772576
-53.011846304784775,-51.5811508752743,-37.18653514138184
-8.710062356659733,-27.442807169091022,-53.519031892288254
-85.48971718320199,2.6140757816971245,-52.58605469130302
-68.19623687551838,-58.74844942192167,-54.75023698237655
4.8232981026629815,21.015196528489255,-30.10945193581426
-58.31809279968711,-145.72721367012457,-69.1665353965995
-114.93018495771327,-100.73131848574465,-68.1188186970534
-71.24086880337089,-113.14930017539983,-45.429819951558976
-50.193534525112064,-46.57128950414878,-59.88829090028131
-1.562288709172023,-36.688643005752375,-60.03928668361014
-49.660768263033106,-54.22076773770389,-47.102614222809436
46.32484291570634,-48.12023061859852,-54.19608590014204
-23.146649514535042,-24.210193375344783,-48.66177483636495
-50.39552234125892,-49.23446794955866,-69.73831405189881
-99.80254253058152,-23.386907599949645,-51.619697231006974
-37.13095704773971,-48.090952384791215,-34.74045083248829
-14.535742132069814,-101.37360597473115,-42.80666414235257
23.693567057018328,-19.75969208142591,-43.46501564387365
-61.76702741851099,-61.64910349486042,-69.84353087706504
48.17779928495244,-44.628265398028326,-51.79077168383445
-65.67816284554264,-69.3297247057474,-37.40700996986102
-43.4990878793836,-26.705762685128335,-49.76175411375986
11.889593760050346,10.046921073356188,-54.224230518836315
-111.42105434732062,-30.696371419787948,-41.304122938901465
-9.650987522564428,-99.70426450466032,-31.524412061960884
-73.69608659356277,-56.203051931900006,-34.77584645252859
-120.025519122303,-29.909030051831277,-67.69773216241651
-105.21646775300721,32.140061574374926,-50.92172023867445
-102.44862731084824,-103.64247756672748,-53.28322061320393
34.83989782337457,-23.543428300362198,-46.16536702285541
-52.1759615407897,-60.04289143835849,-66.93948975703131
-16.79934173472907,-46.47940316058891,-37.59315534684698
16.720153905598707,-84.33391184122658,-50.00550456227828
-38.76779242946764,-46.20142099171081,-64.41401658439757
-90.1927173972467,-129.02773851236068,-50.23965403650217
-99.82057386543617,-26.104185275086497,-68.8398956661926
-50.366626934694246,-50.527822144596904,-31.767335411513784
-51.43888593784157,-48.0214010751609,-44.984866131155485
-99.67954543297301,-57.41481798049468,-32.0336033372232
-73.34575810826698,-57.842320889092605,-40.4512122383057
-3.0165913958222887,-34.4928171397175,-30.300798269526968
-45.84435261533359,-10.840513571141528,-50.74337951988045
-78.86005310706629,-142.04881931327787,-34.561638881460155
32.06129329087359,-104.23195302600621,-60.8538629061658
-34.67768794034595,-38.10319238769827,-42.85524621958013
-72.00981534882405,-12.72275989070804,-54.85941928949608
-74.88652019210068,-53.9255625484185,-49.08679493504666
-41.056084537054446,-44.051263970944554,-42.32190650087718
-130.62265540358746,-19.28855825348082,-35.79826752624257
23.15149314140656,-78.41594833081629,-49.44996134493336
-63.921321749904365,-48.8995950429761,-55.65232320497578
-14.14898097473732,-48.65506088324852,-66.51197192474591
-50.0355089158423,-103.72241983208477,-34.912685292669465
-82.62859594721958,-52.76084770690064,-32.354820098914516
-52.20290422450588,-70.13151538204772,-44.352645012791896
-83.49782834002535,-85.36334009787515,-31.075310934207877
4.030972304345326,-67.18224234165753,-43.838429916684944
-61.303155625260956,-97.26413203866477,-50.17941324783527
25.565908930869412,-3.0852197256014264,-43.55875233360568
-23.352365662386138,-59.792436603693176,-64.65877916977443
-91.72900154733182,-19.434952943815325,-51.91914114766766
7.121800855859114,-48.88220457011107,-52.217522136069
-48.630295915660895,-43.49788198170053,-59.31354532931908
-48.359380084907876,-33.82463385440228,-53.92560273610475
-41.25282304628561,-7.614332709294878,-36.30734907524577
-16.080985595870963,-58.05954482242934,-51.45916663495753
-28.069608834203354,-36.43766894429544,-31.435231041966404
-84.6633777353617,-78.84779229030222,-52.8882250408339
-138.08050401541402,-47.561073990501036,-35.4101667469503
-81.91525715489469,-66.04917911649135,-59.829311674056136
-130.57030157582068,-22.777441230516555,-58.08410575392465
-37.36824379105557,-30.781315151426217,-55.738351711498225
28.22876313660734,-2.8597115548177214,-63.22028951954092
-22.040783095050053,-41.1374005524512,-36.77173304776349
-141.2260033453246,-24.416035030239673,-53.30776488185817
-55.41311953213227,-43.258893233511884,-53.611786375128275
-56.81180915127604,-64.51860276214109,-52.597333436128494
-0.43766020941853867,-51.5170472470891,-60.8410538674213
-52.132525018926586,-131.14125203016664,-39.389530965082685
15.342165853758019,6.535914983526027,-41.73464390584231
50.52249065895546,50.0,57.87378523785985
60.898327165881504,50.0,64.8344086227185
-21.20215402702776,50.0,46.06432394096738
75.78118315635385,50.0,69.6941330984319
-31.821298117226803,50.0,57.14212229499207
97.12464603751194,50.0,34.36068231812202
149.7033060411593,50.0,54.55811949909197
114.42454037070365,50.0,61.71041978415128
95.97662594328847,50.0,47.0611382928632
-22.082672147921173,50.0,49.41748096367237
60.456522069644535,50.0,55.89896688063238
20.815376612658415,50.0,50.905854406599495
78.94985478699758,50.0,57.32498996994388
48.24517898652815,50.0,48.333179138393284
-12.544046022150248,50.0,53.150694703292565
-13.12982911380248,50.0,48.06486247390575
-38.51632209615447,50.0,55.3877475236022
144.34509003237378,50.0,30.87686653191605
88.27149357855015,50.0,42.648571473176986
129.5631976050074,50.0,49.88768320507102
129.46546422014134,50.0,56.64915249152414
26.798969793525078,50.0,53.654761693355994
105.63564837538746,50.0,54.426823654904695
79.15045441648502,50.0,56.46512294293141
41.83196382394319,50.0,38.14107467744314
105.60722151628875,50.0,67.2076698606602
-30.457987780073935,50.0,41.94378967002643
91.27640214611247,50.0,46.3610139560122
120.6925497280084,50.0,66.88651167184634
122.09674228808178,50.0,61.54453538354044
73.98256146802271,50.0,50.5983363593254
7.599044480644174,50.0,55.62791157191708
41.22515945154557,50.0,59.787729217071266
58.99469532750034,50.0,52.40797263447854
-37.05626810093581,50.0,44.98955384432447
64.50204644731407,50.0,41.07887916852779
-14.081103731368245,50.0,55.845395089739455
18.292750589492723,50.0,39.19622402221117
8.182308414140657,50.0,65.45960959741392
35.134632887357384,50.0,39.742995026782616
39.03725356674094,50.0,31.736130596571975
-11.37347999668441,50.0,56.05382348633856
3.153776879131854,50.0,61.64568771813353
37.04438893248089,50.0,46.52811031981015
34.86648284944399,50.0,62.11440696680383
138.92002703842383,50.0,54.50863053935766
-23.53118177671287,50.0,56.30751347443774
2.8991216953078762,50.0,40.53046992063681
94.43913874109091,50.0,47.01166880081048
50.78098307801239,50.0,63.538361392628325
-15.631785948302095,50.0,56.52363532263238
-46.10445631800833,50.0,57.27553424523474
27.841827825476845,50.0,55.89693404155228
95.93206727259314,50.0,36.53622384257967
108.54137252323665,50.0,31.623047479869804
62.55148579368565,50.0,36.554040535761246
114.62622641292086,50.0,43.41010051940568
96.12825294970582,50.0,50.81726648622697
-34.544417521096065,50.0,31.525600177948878
-2.9655253627455807,50.0,32.92355492545475
3.6400364188603405,50.0,39.17826586449296
51.93302984128423,50.0,42.02154896174281
79.57710256794758,50.0,30.758272984817122
-15.029166151307365,50.0,33.236966107691615
16.773220458204158,50.0,52.89710736379073
10.105944936435051,50.0,47.34107443847326
28.043999660991094,50.0,59.97780719500069
78.61553304703591,50.0,60.065238922137425
90.15483324012254,50.0,53.87947688740529
-7.87793875416024,50.0,37.9599767407736
-3.0942620229888504,50.0,44.874125052687475
111.19606109026219,50.0,53.45871514402287
56.14514767572122,50.0,47.13404047854043
122.54241519656748,50.0,62.147966168073545
139.02316284414613,50.0,30.396954537566188
-15.400956895864638,50.0,54.62041706242436
-37.11303800767196,50.0,60.67868855136804
70.21378034868835,50.0,62.86540738047758
65.9923141897578,50.0,55.26031976252185
47.02473215386191,50.0,51.679337419181124
24.820657469011483,50.0,51.66919018172489
26.21950285446231,50.0,64.98448528328512
80.04207649899861,50.0,45.3743377761396
140.2198397660535,50.0,64.09348155353862
-18.17520496928627,50.0,60.81445415359884
51.54146036358227,50.0,60.56468756775132
-12.16352513344043,50.0,46.67679643653121
90.66104422016068,50.0,44.058575137738266
67.81411420128279,50.0,35.638681287267524
46.64288104616959,50.0,57.148954606124946
101.11597371430776,50.0,52.75666222326309
82.43906659101884,50.0,60.92073962979137
117.19143360858418,50.0,69.43998935177623
132.91298720737444,50.0,54.00195151492662
53.47605941449982,50.0,62.30719123101274
-47.44693558981797,50.0,58.30874099131631
72.40136789289096,50.0,38.05713072928744
35.51372544826324,50.0,52.87977769588759
31.62291416722331,50.0,33.57715020935383
29.941919811395454,50.0,54.34966803311248
139.67335001862543,50.0,42.632927809138
17.16494409071108,50.0,64.14635701429326
-20.367216105125166,50.0,42.826872456458084
36.77614978425305,50.0,59.66156367896407
-10.872185644279377,50.0,57.359109897329795
60.41598893997742,50.0,56.22654977555001
135.4372398643421,50.0,49.820043401638124
45.766742014109056,50.0,52.034982899326614
40.721704048431995,50.0,54.57040650945399
13.05707056650892,50.0,49.69539081076191
102.60362233838055,50.0,56.56431293448364
64.16238623972706,50.0,60.325063195609495
-5.529116889273681,50.0,34.87944874374666
30.85126287635846,50.0,41.279073546220886
62.50181704844287,50.0,53.81647345178416
8.474042227818622,50.0,56.87906017197043
96.37890786534331,50.0,60.97501191502427
2.9078036872976227,50.0,66.3366433473464
-6.30667119662013,50.0,50.604468169641116
97.1842404743833,50.0,56.628819775774
54.345437169594405,50.0,32.25798172232184
142.6198525381933,50.0,40.78322742550176
23.681054812482387,50.0,44.542722319698626
108.87228106513214,50.0,36.733178235760704
40.50705853295282,50.0,68.36754795705264
38.51671817184168,50.0,39.482881677568386
86.72796426080004,50.0,31.143844793736008
127.71727416238699,50.0,53.32738750906339
-16.45158060068735,50.0,55.725275984489535
98.07661313872362,50.0,43.82468651518189
-24.02741540732049,50.0,65.13798898877863
78.73627269750584,50.0,39.67868900650032
57.94753656259143,50.0,35.15709275836069
122.63754218914599,50.0,31.59945467963485
92.78699403863743,50.0,44.52893631688085
7.893851657957697,50.0,52.764111927692305
44.8744727274405,50.0,36.580685159163345
67.03260529212392,50.0,66.76310286184345
-44.411408252938145,50.0,51.09848933694112
3.2027073654122304,50.0,57.85573819620605
-13.719532245510678,50.0,61.786943267573804
-44.90190816413909,50.0,47.75504606842828
-21.111364117146934,50.0,50.10066473835564
111.9112214622757,50.0,33.823855186929244
-34.60932671569873,50.0,38.92755102857873
-20.045997477426596,50.0,59.5508640706607
37.803503262968135,50.0,58.8319235518404
61.33601514951712,50.0,34.902937141130586
-28.069297557150634,50.0,39.942926097625175
124.15376226579086,50.0,47.333638109017926
-35.29852944907935,50.0,50.93960750375479
4.0231353147198945,50.0,60.81062110382457
111.27368456369078,50.0,54.59925954378722
90.74757111271768,50.0,49.57657696498659
104.81646502764838,50.0,35.10631704183333
143.89875472462037,50.0,60.32410915914429
8.573753055853828,50.0,51.77629874372252
60.62067590619931,50.0,35.61826141522661
22.471472341919974,50.0,63.979381792220764
-7.158802685864487,50.0,36.14081335455549
104.56358694766026,50.0,44.50546561889184
63.05643153401116,50.0,48.849241545085725
127.35090432372228,50.0,37.17269831535587
85.2409134985055,50.0,48.48103141476988
115.17037744659974,50.0,30.821806304603022
25.770237371776723,50.0,46.61650877037802
71.18507418062094,50.0,50.40148854412568
104.04039625766507,50.0,30.050215264304153
87.84674841755971,50.0,66.31220654064222
-36.723883982354224,50.0,55.96770236046704
-14.652566540674655,50.0,56.84263877843398
8.824826438353647,50.0,46.60815367596993
-3.9498314352644286,50.0,51.67234627169709
40.0156700286555,50.0,47.67175168100901
76.46043650150675,50.0,64.5113540839738
23.706682057412188,50.0,39.428941499974314
17.713139421611736,50.0,49.32562163680945
-45.417231142261954,50.0,61.221826562751176
98.59379299401638,50.0,60.11831188636101
42.04315463742665,50.0,51.99833134397693
74.73431013843411,50.0,65.17875532076408
74.57329912871249,50.0,32.44447174023507
127.62170643323259,50.0,39.853457109303605
35.06228677710631,50.0,43.89327248762129
128.84982590345442,50.0,43.517079755575814
90.90797405940643,50.0,31.970952155963722
81.77761153193876,50.0,42.33565860050262
50.22001197551396,50.0,67.97169817046759
123.69820892619595,50.0,48.574775582991975
71.04308635315822,50.0,62.13223428538591
40.55921513797865,50.0,54.9203172450779
17.23740215175971,50.0,66.991962778242
108.09592587684978,50.0,45.518386520504606
76.7409819337202,50.0,45.150829745838315
57.46234889388987,50.0,38.302565438329346
28.878759345334768,50.0,66.0801119195886
7.644023685334119,50.0,38.9798930702934
21.395151975033205,50.0,50.67098661508571
20.787938285567254,50.0,37.90827884156553
44.901990557803266,50.0,38.990850003805676
-38.8945251050542,50.0,45.34014274173725
79.5037031817531,50.0,59.99572014881986
3.2556696359139963,50.0,39.165113055047556
84.17260236169393,50.0,35.019115554395796
84.23766770812213,50.0,48.296419352976784
114.56070666543457,50.0,48.692492776084514
2.202284000006131,50.0,47.134141491751514
19.836999716707933,50.0,56.34105165400353
109.77126488873002,50.0,46.67543609028298
60.06114012365494,50.0,33.2089250830377
124.41766979015986,50.0,34.74446271586599
116.16628274765176,50.0,53.31214965971979
-3.3086566934001453,50.0,43.99887972136453
107.14013013377195,50.0,33.8993648797964
-1.1013167840123614,50.0,49.583249430619794
-5.354440964925423,50.0,46.884006103630625
56.650584372523944,50.0,67.91618601729232
32.02648993849445,50.0,42.9486943879273
114.56746010730268,50.0,60.1021933141287
141.993533058124,50.0,59.67337325643125
-4.357719721681775,50.0,66.260323728221
9.184862317420809,50.0,39.0921987038326
62.629087048214146,50.0,46.69342360621044
-32.92659417039994,50.0,41.975881495841364
116.84799907514015,50.0,61.18303572231154
81.87504981911833,50.0,44.66575983931219
19.697586254932496,50.0,68.17498372944566
120.51515126042625,50.0,69.00010712441915
20.305046125833094,50.0,62.209547088954864
73.0920812271591,50.0,59.608390394717645
53.00859220522484,50.0,51.43105040592761
130.97331126144962,50.0,49.893380784028764
27.538056331631424,50.0,64.3255046150118
104.15694827950514,50.0,64.63745428419327
-7.325804718878871,50.0,51.28319447440284
7.706821505089458,50.0,56.915964621193744
38.34372433624806,50.0,53.054265343927696
-10.365027840571052,50.0,46.480930142762396
50.362016414266584,50.0,43.07085097109003
67.5540219330129,50.0,46.634475396441054
-1.1508459605846753,50.0,62.46096332468489
84.5611407039622,50.0,53.5732190284996
-5.595672422520224,50.0,60.085658340666384
80.22878892348518,50.0,50.93170221347894
-44.03226754740005,50.0,58.126896404608374
91.33493347971368,50.0,47.672227733831676
103.99364218981174,50.0,51.512302750683986
31.207152554144184,50.0,44.153352905021436
16.3971258463911,50.0,34.72066170421328
-48.855348882862984,50.0,62.4592924634089
57.52610166940398,50.0,45.01533982958787
118.73696754167815,50.0,38.845600293614616
21.731576948665243,50.0,62.00035216231516
40.856389112111664,50.0,47.57228563861895
47.63788731361327,50.0,58.79451585980235
-13.268937549720171,50.0,64.0135393075476
-33.71346551259691,50.0,63.042674673822745
99.99924199359359,50.0,64.72647602984084
76.07710828004174,50.0,44.92635034108894
15.580306415939418,50.0,36.032360959438414
17.709730116718156,50.0,58.821581974447426
146.7550801264159,50.0,60.05632163677241
10.482803434488474,50.0,60.1288073475156
107.5055450414911,50.0,60.63949074617726
3.0535033451785623,50.0,55.37033692511168
46.487699180627985,50.0,46.01183590641785
138.50353569080522,50.0,50.50028365769382
91.25226487204729,50.0,32.33694358121317
100.75457183930192,50.0,33.08905660346386
126.44704459202433,50.0,50.695533164861814
67.74343050161727,50.0,47.66674553471284
77.61513375270951,50.0,33.481292127155896
33.21977182552186,50.0,60.23847277693655
86.32153008673183,50.0,61.7088391140127
109.69558478805341,50.0,40.641343930767164
45.97053090476396,50.0,58.362057025956226
86.88899354752678,50.0,46.94613342736749
-11.716917248078687,50.0,38.76343671275695
-27.731096305395525,50.0,57.79959366118042
89.77559494509595,50.0,30.074164682844998
-20.93755995893339,50.0,60.425324199078965
-13.705247398396011,50.0,58.630253492124794
28.079091699379134,50.0,51.60153089136503
135.3439848243391,50.0,33.521251764415794
15.777583156956737,50.0,66.95882944284097
24.702619202588167,50.0,32.185703430080395
30.525334410781728,50.0,62.495896253903574
39.58950408528656,50.0,68.84432562823453
87.87019149383545,50.0,58.01862849994994
106.7419503222396,50.0,67.43226841478555
119.87290954175128,50.0,42.22397389899977
-37.28180371016576,50.0,41.722507694896166
6.145287635095222,50.0,32.39005968322614
111.82983907762375,50.0,53.9067737368962
127.65632262947456,50.0,33.457172347002384
-21.764632682426353,50.0,38.655775344859336
83.59111267274794,50.0,37.78807140307329
32.22576561567901,50.0,51.94800417544904
29.47251002340345,50.0,63.56147754754085
67.9483495290938,50.0,62.20780943047115
44.43490991849623,50.0,52.61358561935887
20.143082889449097,50.0,48.58236851555391
57.32764206570634,50.0,48.33733067968885
47.96104280305081,50.0,40.33965041055306
71.35440840361665,50.0,60.12865821640504
107.02554922293683,50.0,52.26956115619799
79.16439947848225,50.0,69.34628160598513
49.15658230408735,50.0,52.17814260759657
12.70767453854242,50.0,38.0379205890295
-28.190255274533968,50.0,43.103495000233984
32.69381105160366,50.0,40.69764099338753
17.94722197842676,50.0,35.131527259733765
126.78730927403382,50.0,59.36564197681785
-2.3643564952362937,50.0,51.556322125954054
52.20500398402289,50.0,59.89243837194381
104.60329000061424,50.0,68.04334975550414
82.80246680234697,50.0,36.68428713736082
119.10993217929676,50.0,69.0191678154083
32.968100656374986,50.0,45.039949779737896
-49.59232153361988,50.0,58.29642391589262
25.058093810994546,50.0,56.434067278937626
-39.17445516972214,50.0,51.51646322467225
84.3427776204861,50.0,55.03878476570656
117.30443924969974,50.0,61.46095912524459
14.782177430953944,50.0,61.06091139095925
117.17440416996551,50.0,39.00536671142387
-5.8048963014339705,50.0,57.44050505366303
42.573434122944676,50.0,53.9931492558425
0.7365625110351246,50.0,31.06210760556667
8.203743574421537,50.0,54.517722143868035
45.97948801287719,50.0,38.52078445366299
83.99999858419787,50.0,65.88066725706459
-5.395436495830943,50.0,49.17007291750659
107.36917328699175,50.0,39.13898811400284
-0.3036125350554286,50.0,55.786882206761355
50.78301139391684,50.0,49.80850457260038
-35.608796050608404,50.0,57.85197416081537
-46.2305251979205,50.0,41.54336455388783
-14.839361721943717,50.0,34.70940027595451
71.9120927402607,50.0,52.924443604795506
49.84920141025219,50.0,57.585299584902366
-2.5489679767664697,50.0,69.47775755054955
-18.769801624132214,50.0,67.20397317057342
57.2315924668589,50.0,42.42161441449819
5.649440325986703,50.0,67.82007580787771
-4.201792833417549,50.0,48.131351810989536
98.08397471978483,50.0,55.292251954678775
72.08784688941897,50.0,51.18947033186629
122.98750105319732,50.0,69.17671000799352
71.85415036753156,50.0,60.17335444253285
123.05919037863615,50.0,62.97048931307306
125.03087470101288,50.0,61.867339009809356
89.86284178396697,50.0,52.597253914032414
1.0484500828186682,50.0,57.86438242333125
-39.499436016442075,50.0,55.11101182319227
60.41996483771102,50.0,58.28391640832249
113.25759342946003,50.0,66.64688275762383
-44.72945826628931,50.0,53.2617822372533
32.70622831124934,50.0,51.24553316704208
37.624324577448206,50.0,63.49172364398969
-21.416738959423313,50.0,61.46998653566537
-14.223054576614004,50.0,46.124541126678764
124.14034680738062,50.0,49.80410921521106
82.05550235395046,50.0,63.630552639455416
41.89342989065308,50.0,34.891279967815194
120.78118363531918,50.0,48.19805029936496
-1.7047012672405728,50.0,43.741201787559184
31.15076066671108,50.0,54.185723873792504
72.48343721467246,50.0,43.31645809500435
4.877303906094568,50.0,56.78203369500031
97.12685778383303,50.0,39.18274595118317
-23.379753204354145,50.0,36.428020952876224
-27.770128372079625,50.0,63.1888591274009
30.186718574769618,50.0,68.31327870496698
44.02205114242237,50.0,35.67053702081415
137.62122318860628,50.0,46.234201122352886
96.80395081806574,50.0,45.5308877063174
145.17765337938494,50.0,66.0975268007853
23.770651218726858,50.0,34.471924576786925
97.81331564202071,50.0,40.582959693662
-30.051903892856984,50.0,66.46637652602305
-9.77086243168479,50.0,58.61908227611727
22.09229812530002,50.0,40.74993199967298
40.767735328694556,50.0,59.4782799359238
57.2796623945856,50.0,63.3531414723892
93.74367210116162,50.0,54.034524455407556
-48.544780508891634,50.0,30.344420979382253
-38.87630764569708,50.0,56.320299203528734
4.492875092656448,50.0,41.2128559802906
-19.282348072932294,50.0,50.998549026858605
6.843379403365859,50.0,54.0290830699835
-0.6889909517206902,50.0,35.408461728745735
-28.55797016585656,50.0,58.770201919613584
37.43121588316576,50.0,34.71680732819796
90.23322948528,50.0,61.906459126288986
46.71067943049856,50.0,45.56216867759556
-39.744774148885995,50.0,40.91300611610225
64.5794856131881,50.0,47.773658604840776
3.8432339708551666,50.0,59.00147224441103
82.20761310541494,50.0,35.36931661490192
22.241833434515122,50.0,56.682156530894176
-8.852461750290807,50.0,47.55831903358221
-48.14189145205202,50.0,39.735150847338815
14.67825469280406,50.0,50.76446537080572
-44.40979362492996,50.0,52.051459276006256
45.00301118263923,50.0,41.99844171390932
85.57349903646346,50.0,51.45817881145494
20.052162431814324,50.0,59.36056246331163
144.99362183213992,50.0,39.74027242652984
145.59084958898114,50.0,45.82314242032484
56.5739337592359,50.0,61.01594995349087
-39.185542770947606,50.0,55.54062118059285
99.47315964263336,50.0,41.078973712526775
135.27755404405247,50.0,30.939845251381744
-46.33489890899931,50.0,63.12683521774542
-18.219667596746902,50.0,49.81391067999633
123.47989218223113,50.0,30.716148270353983
124.59417390152143,50.0,52.73333466646828
-23.701913522426324,50.0,30.77560018652347
137.61405977121177,50.0,37.355930366690274
58.27347251988303,50.0,50.483887831964985
1.9476925857126943,50.0,57.28048847476306
