7.115790688704919,-5.41532257600505,45.348767732240134
-2.046978121371656,-9.39982089197603,96.54698615004733
-37.962365997809194,4.092366469663371,-17.492375618761884
-28.869880148439762,-23.663444714507524,-34.640072018704295
-6.201316553586867,7.053874572800126,13.972496858260508
-22.77199280664026,-13.639374916340596,-71.70030685876624
-2.250721495368881,-16.568616240421562,-39.758861019019406
-1.9503398659089108,4.354560518728516,49.33769121134175
-16.627510469457057,2.184651117972324,37.347459721673964
-33.27210075331642,2.0666981213152105,44.93811580526373
11.600536872211356,4.055990017682922,-5.003298378063755
22.86089727192921,16.307903628367075,21.611372794237766
-0.5411683122131307,-0.4058276853966135,-81.80612454853357
-5.6224535573960575,7.918479143398261,-20.030458925467475
-32.207656540664324,-25.309963874111126,8.306144546966426
-0.6764404764435635,-0.8732818595685041,131.5825011375688
-18.16699076918441,-9.794777020329084,-28.046055413197895
1.747291581492879,-7.698215219683373,-114.1096606419468
-11.69387537565435,-5.617661768404776,140.4611446853813
0.45962453784930485,5.028841050793279,6.523876625898299
-1.5864310598366704,-8.858576251376752,-92.50607582052504
-0.7957175917137673,6.85279876017013,-126.27826137296792
-5.389863810643978,0.3032221107736828,32.374371991094385
-15.183678021552165,19.591096262869833,77.02942174173337
-7.408029784329971,18.33943302746981,32.68358708080218
3.3641986454694495,0.821019246098872,-67.52014155794492
5.738616807558147,-21.482630458190247,-73.96762471440498
-4.964650159610286,2.3604366620456854,-121.94025889964945
-1.4767315235200542,5.125650081756832,26.999218798653356
1.5064311773736476,-2.3461832410128296,-94.96874044213094
0.6637117696535414,12.469847917982195,-55.8089951133511
-8.926217626000064,6.41010234163901,94.60790675810597
-21.090783670206815,16.401607835728623,48.12730624236387
-21.09225409618441,-15.167068405995952,-0.37547814235227256
-0.20065103752067553,-0.25259505505155616,56.20190569045212
-10.617979977961005,-38.92795096745294,71.71103792760921
6.658254280393628,-20.369740229418426,67.17074311607395
-39.567654477430125,-16.587429589196752,66.87836127442002
2.7045209617133845,-34.98122825401163,-26.41141596208702
11.982950219470998,2.34858864938041,-124.06678273328833
22.212827805901863,-17.49362671535578,168.90040531961552
-13.273620417555444,1.8433738088686478,-25.874843120817726
-14.342852143046928,-28.585487407714574,59.48597718315946
27.528021795914917,-1.546662316064654,-60.19453863684676
0.21171646082900547,-0.30550844378469516,10.425763638954306
-19.27503697812668,6.4510542877260075,22.69980512298923
8.472632797648544,21.81456275441718,-42.77867046495414
6.7785067662520335,0.5704557634965794,70.73319504973092
6.966392331465024,4.7632565288844875,-98.15624468477547
1.203246099572011,1.7974473148842893,-40.06477894858067
-13.10761421575116,8.67943332928413,-86.36521769316762
-24.695253131664447,17.516846556126254,69.59586381523772
12.500362222578817,-2.171777288519043,162.3931311277381
16.600925283605996,-24.033316423569183,-57.365253707823236
-26.69233265334257,-37.55991979447526,110.90596869210276
-1.6639589988259524,8.906411183956024,0.9792842822365015
1.6305579202800775,-1.0603151511986761,-22.718736482279354
-0.6450455898026469,-25.549739605006284,87.66317366159304
2.342265824708898,-0.4652061024166582,22.631112908248888
-39.8112535773069,28.913888832762698,24.719380296047476
-20.52296862753834,22.384651236064396,43.89876579233955
-9.653480699398784,2.1903598903999444,-118.06561827987085
22.746555557572346,-9.263733146142481,-126.08353334782439
4.225456595744245,-25.148249548252515,27.675473140192214
16.97357974157088,14.966748919254192,-15.19734890056474
-8.046127464044622,12.355376378119956,35.45941642952643
-10.087981200127308,29.994787957642842,65.23647589183037
-3.6423897951642816,-38.033237844086756,-147.7595131965914
-3.89953955912489,24.16274518910351,119.86421692902303
1.265334777623268,-3.1544715680292823,63.40789610290314
-0.6355173319211647,1.5107600614164463,-153.52953049145762
3.746295869694719,-1.8664871722845304,-190.53064363294135
-28.94315258516438,-4.826589264015893,-16.2174734509867
7.278073052355701,10.130927898139417,-75.48349199864592
-17.929376224868722,14.091661599318437,-143.25404135350414
-0.8473770374507776,4.439382353159096,93.0398406098114
-1.251429679657628,15.66196308288451,74.2177311332058
-13.583812212762435,-31.04956744251174,-0.372864958671604
-20.617988073219827,20.251923637446595,127.92350456743966
1.0705443665700136,-0.4876561507002777,-36.587114753404684
7.213085349437564,2.1262009957150356,-77.76926445759038
-35.21172056726865,0.9851535459255341,-100.08347443308163
1.7821055534665167,15.31559605292703,-171.760533524187
10.777690961322284,1.760161646549005,19.10252283724394
8.748250413354848,-41.882492088429785,47.7726838101178
-3.7547822452209907,22.378500612768338,13.966223018229442
2.1899166913022494,-1.0694560296573263,38.19854535041812
-4.422503047372764,-1.5054468843072832,-6.028130340399589
-4.3206876921967154,-21.24966398021272,-116.4753572299121
-16.84157640720197,17.64728174981716,46.78092390023856
0.07495113451276512,0.6744408416431047,-85.74617362061969
28.617288275846203,10.18955523024401,-68.26506297596534
21.25598249875487,3.2715713624572795,-22.106059743044128
5.70011898093415,20.554098182270216,101.26750920408858
-17.079727734872325,17.61763155046621,-83.80222001194453
-4.232489375382366,-11.497773132564097,-126.94855493443859
-6.176110196721102,6.776837237250419,73.89247938442455
0.556812897690942,15.986856157694108,-88.06981999203303
-3.7573195114204507,-1.6889985580939926,-49.57842235295262
-2.9167299320817794,-1.5329771838562456,-2.6023916649756975
7.846977737663278,23.312533378466934,22.13932775197566
-4.935210485066045,9.48424199543999,-75.70748128790974
-6.502155469180369,-40.18262938025245,-159.407312930301
3.228844301842059,-0.42448911390726807,26.280663620130518
-5.178316783753895,5.484412548306598,158.9548274741818
4.212954124099439,3.096079155317589,32.741597673830555
10.032619865833674,3.1081663358524216,46.50546269824206
0.937090278355221,-6.8939364287532285,-26.12005352666361
-9.531890809725269,20.50609148839399,26.206093743265864
2.566859598388091,32.06056794062391,89.74623414901912
3.6013315939199884,0.7913172448316567,-82.95089359226857
30.570233068076853,-3.0234770275808938,-116.85874416799449
4.6678326159822054,0.5969897029833934,161.79309716552376
-6.234494200958785,-7.6003492918720665,0.057916102559129094
-1.0236646264070504,35.06398055949798,97.92267423232201
0.4148924485411478,1.6175294905889857,-26.78805495828597
-9.739657154158921,-2.5068208105609706,-86.25021669764614
-0.9146976966902308,0.8065628700618228,-108.47369122490637
17.024432582574224,17.410171152032206,-44.555221238848375
-12.021924094496024,3.9862466010435367,71.42640999444744
-17.070488207245088,-1.9611984852376334,173.1348066168961
-4.330809313446195,0.30850410885942076,162.07373005627827
2.388177080888852,5.896702354236528,77.79363768950108
10.056531564655343,13.321468569986731,97.379089778749
-2.7301188098882876,5.351731184758672,175.97637177460473
3.6270662815521995,-16.625233884107146,85.94349836990335
-0.04938401764067787,-0.2944662847977212,-67.79867559115301
-6.1013067699017025,20.625026667721208,-90.87485611375755
-11.384261665636123,19.80768971205324,-64.17050707039095
-32.32826419532155,10.151201120019108,70.28610346057177
2.750009930080471,-2.3039576267031694,-52.37039600693979
-10.756255668256912,-0.09847964458914397,-42.28538311126223
4.753806985941068,-22.301866790439618,33.49145098274605
-12.681287449198315,-5.684176663014539,-81.94737577495447
38.78466578094514,15.636993186070644,16.637222079891863
16.08699636802372,-9.31767585952613,44.82772298420753
-35.412217495063125,-5.56271938261296,69.27041652357522
-4.7116485901341685,-7.6900228434427165,42.71688337535483
3.1202277192918118,28.886886640739252,2.158149851947451
31.994577305027263,-16.208925790352026,10.878350536904534
17.08248322393286,-24.581521230531354,-96.56336360775065
-23.73232627224262,13.154273934889739,-71.94239920196617
-15.392385960764774,2.8718952754483986,127.60127230331784
11.516193106037937,10.215506663146174,-6.3099013683499825
10.851584048360449,7.932384418963482,-97.61754504105171
1.0221838937763859,1.8994464284393766,45.535431561735855
25.242860162772406,14.625035471208195,26.47546691165789
-3.706139737184641,5.969410833149898,-82.05722267182189
11.724516407224252,-20.22404447751292,-160.15635572816052
12.914579552233027,-23.392610703952954,170.89210011295782
33.48884890298757,-31.90838355790241,-6.349149266260951
-35.101198141415615,-18.903043226452418,-7.826061689412982
36.954480164193676,-14.981483637575478,40.43213055127501
-16.540086652148446,-0.6465596468749738,63.55628173357326
26.476699291589473,22.193010035566584,-107.09430482086384
35.99821353259733,-11.837862449048561,-7.774082648803709
7.282363555595249,10.931415120367095,190.85481149546902
-23.853166413011607,16.07048408181874,194.40721178287734
12.571442012520729,-3.025915920115176,-117.3663257069895
-2.28902465160905,2.240792168159742,0.5411593853458035
29.033096750110474,-10.6827505607109,35.74170992355367
9.677061900618128,3.297211398149674,-2.077899227459757
4.759291800519707,4.753950986835152,163.16261018748443
14.207960364118914,-11.186892497054703,19.84314939960541
15.395582699147582,21.93894403101026,80.17308417475614
-14.986010629136667,1.9093647328623489,130.46757385671404
-10.044170708936624,-1.7276035675614783,83.85411950250803
-26.184354504532894,-5.131360542314629,-142.57610246354045
18.222290107534757,0.5181501788632294,51.6174182900959
-0.8986756238142548,0.9375424954844472,13.44479542097347
-2.70074458100668,13.660524199723463,-113.22599560112856
1.3752449848196118,-0.8728989746689856,-74.23435021786028
-0.4632895340634079,-19.534825587779128,46.04379118259276
-14.608509367065244,16.438448641891164,127.63979018942987
6.552000717551041,7.8927773255839275,4.299346056950311
-29.061567626750218,-2.6341946744352676,-72.60743759404136
0.6793700093497185,1.6056105031694725,-157.68152721606694
-12.193636289021434,-15.971643097361842,178.22869835363625
25.73899472955754,3.9368760309260047,96.0601071799456
-11.423213699847347,26.40461940065763,-84.2276388142061
-29.899064120749603,-12.442954650259212,73.77277464849212
2.9162424190542597,-19.264075262178636,-73.84170119055645
-2.3775126371546658,-7.594712149910552,-70.03216625180012
1.289485124911361,-1.4169904867679626,-12.40761925127115
-7.073044819746806,35.50956640064231,-18.129444933159856
-9.523508399133291,-24.237153892466583,-83.06355328753612
-10.859909403380842,29.20596939549304,40.03749632365011
26.702140385686665,-11.813750519685264,-163.60025208241936
17.95654956707698,14.124272616714535,-58.798595463001234
22.0344451273393,-15.029435721639674,-93.48787215663556
14.507380802827253,-5.7264334994449975,-67.86276888750386
-0.1494780517849672,-18.302111074866982,-91.99850752065217
-35.94819914729245,12.61824541502388,-51.41883828254825
13.806972119271943,13.666715744811926,131.19369716448102
-0.015564727743232379,9.467082770542135,-3.1324750451308003
-5.906923906592158,-24.853384244604925,70.4741485818177
-2.2598710644212425,2.830520079557371,-51.33514570922104
-3.41166521574969,8.099742663723537,103.92718654481146
1.9930264879761084,-0.4467121681905163,-142.20369223921662
-1.422515108245321,3.9718457919349848,138.6778436997557
46.263275209294896,0.2058641096883185,-84.77206865265568
24.2116767464253,11.585966994921321,10.844956776071239
-12.217637950932959,4.27639461879625,45.32065889739095
-19.69503525036214,-8.283809203051181,38.28016992976359
-15.380751118948252,4.771861472307705,-21.026574309995816
-16.216689893844148,-16.898170961266594,99.72260416544817
23.573627918145956,3.9887623925336526,-133.1550121397362
-0.2011375642430251,-1.1079639182493515,64.19735858379349
-3.953314533475546,-6.507894580392471,32.88434409616963
-12.91973384879653,35.831728883405354,8.140109448908575
-0.12613566965113093,-2.614812630660151,146.7526287205031
-0.2777043257893051,-29.126344752408816,-66.05391745745719
-0.6374051836108728,-20.42443884395294,75.95996343672556
-22.906653019518078,-3.0507424038555744,-164.23124442569605
3.550174505089156,-21.211218149768207,146.17972107754778
-25.4800879386548,8.116097630002848,91.12930304149737
-28.417301296566663,-5.78558145265109,63.71171440714789
-4.325023872723653,-26.991770342662115,20.334490501992946
3.2016885977349543,-2.144834862227913,32.81907161624445
5.855905894412257,9.65006707229831,199.44387676127658
9.10184878376441,4.695387740796367,-1.3738678590750417
-16.50510922231134,-36.715533651016166,-54.783569285718315
3.027402302851049,-5.038467993085221,-137.96765215698863
0.1536291899885063,1.3034775977213093,-67.85546628885088
-13.011935750714082,9.763528667689048,-13.69085188703925
1.1505293398911913,-10.939155867973499,108.15348803969307
-18.318571949621738,-11.840448239101764,-3.9524507953130392
3.006726107980634,-17.03560368322171,5.7295123611294745
7.113749667768062,-13.148924715707892,-8.559570684752158
13.46715216798327,-6.512040412776625,-27.067972435046283
-7.909881009526949,7.3405380596112,-73.05543813051762
6.2087516483065155,4.273922642369167,-62.081711307290696
0.7569740753512957,3.449746300729198,-59.37484173376094
-19.320804736976534,-22.59681076341975,124.00409008510493
-18.672375153168097,-15.52416373773711,-36.18169248400898
11.987996284218676,-39.77458335747896,9.189975311204819
6.519711377122299,-0.7884502275704677,13.219155937288814
4.265651040007663,-2.5472090213758105,-27.348825669277556
-28.877986188457726,1.4032294580372313,38.741935503640484
0.11048290169436775,-28.524790354605948,39.00707314953253
2.000927185388252,2.6990570552483915,-68.2303531096656
4.783719718088154,8.078852196546348,32.19329953965599
13.72158036642063,-22.772889818996187,18.98942149510398
-38.04212560560464,-18.394506397962342,30.09688296824501
6.681973532592266,-1.5671284229842235,-167.36610876077353
-8.531161849951895,6.6113674181395865,-182.38772741784626
19.73829941753252,-27.391631532175406,86.59067429523752
-22.41870416179627,-22.374845479175633,-11.570888183481506
-10.931243613676859,-14.375132623441218,-129.4490850162378
-2.482973890749386,2.0302353250298686,-62.07749270439481
-4.838230168473563,0.6992239177750955,-117.56889785619886
-7.698017448395873,4.027149863349369,124.28950913642576
-30.258319885815123,6.83009931635092,32.03335459953229
33.43815543764854,-21.229735176827823,-136.91900308527093
11.497101807702078,7.84298531719655,158.71866574186762
1.3716911500872075,20.950855193209268,-101.05720928217303
-14.226881650231226,19.814241889220284,-62.12336812580358
-48.23789922690264,-5.571508199451678,43.95562997218741
18.95585144188665,-37.38996468341774,-144.5682333552631
23.151548224206717,-30.94807092830869,23.76547955454238
36.63374154255997,5.936158485762496,-161.689568910281
-2.416565262834201,-0.3228896610669686,-49.02942639977376
-26.32449046242894,34.211770719301235,-5.608747943765712
2.7697431715788317,17.75799132290149,82.57538066390602
-0.15355895617423274,-0.9688977872228368,-0.8930187411773269
-7.69518311042649,-4.582322884521794,158.33782958476667
0.4285151471530696,-0.18307045575374156,-138.6275326879615
-18.68548504544752,11.417708600184744,119.11507862855935
0.4560774846870432,0.12356592081626082,-66.07872784404177
-17.180134781371933,25.6817850288953,-27.372118319743656
24.909845373419408,7.953252722954159,38.151620248251724
0.9776130978974261,3.246825468173045,7.50652897054146
28.686776778708257,-5.303539543585999,-23.424575317535826
1.7822371324785626,-0.6020393038059633,103.43545729722675
8.956059050629369,-14.742497919287477,16.85296701886747
39.752154335745615,18.411933663733368,-2.9042164085555826
-27.06539227203015,2.3996630535827674,-130.7791416271533
-5.154891058865375,1.7693915485753322,62.40844449841686
9.718877669682334,-10.451030079967213,23.191920456743066
-0.4209874353710531,-3.2029674079485884,-57.69766323847049
-0.3512463039284482,1.2214736496141638,125.88945342211315
7.375281167535784,14.956012309878504,64.48667502822265
-3.105327382172222,-6.217674247456837,77.36245028138173
4.495611638344985,-13.589080589218167,-181.94188094837887
-10.92426946768547,-2.8030641942929018,128.35853290020466
1.080669014424831,17.34264588725417,195.3001794299326
-5.201558194341551,4.511301758629218,72.50545987063403
25.984651029259897,-15.628348200421403,-121.06732501748611
6.2518245413525495,0.04487904076618319,64.54164836958738
2.8260394246730227,15.359052453493959,-41.37167697042465
-13.634072843071452,12.421913549378482,136.79131864815238
-0.015624079393667759,0.1999966925999156,-21.615708994272577
2.0081173510956165,25.72916734397223,12.744930243245975
-15.011412771938254,0.060021270559780626,-9.829474603034853
1.720349922382708,-5.088170668555056,-15.129322126851571
0.18220313968777357,10.251693175000732,-127.20944038938293
-3.266848831316505,11.94668216248326,58.70659579779417
-24.557128736958685,4.588347969767158,-56.533602546051554
-30.279922732834567,30.922833985249653,-77.99238167242684
-9.098068321870924,-27.626117924316244,-80.14800810350246
3.1547462916165987,-0.2786206432878536,18.503533109486487
7.0226964143300625,8.708856030002826,-102.28456464288445
28.210225190150034,-19.532801636678126,-57.4532406518414
5.573361311525998,29.999018665762673,-61.149666973745084
-13.728423597789938,-1.0873249626605261,-51.14590220753381
12.373000986539049,16.814167560765174,13.382750997815062
2.4195253013103737,-0.5158603188605694,-127.21221964788737
1.6547065747044132,11.11775829449969,58.87933316057741
4.70681737458584,-25.88032177867112,32.46256048604868
6.955602904889343,7.20309008809391,32.92021900290912
-0.10145857193430423,-0.13366898823636422,-26.94283609022242
0.050791867799069274,-0.2458900481491244,37.64123494948908
-8.897114344235852,29.913514060202452,161.25755096757536
-0.9565774557590523,1.1616277363555598,104.50816124874589
-4.020025413161447,-12.262597834471652,-139.24136560923145
1.729985685471388,-19.489470497307607,-32.58763733637885
-14.421439316804973,-38.14227680377656,-17.680327775461446
0.9857550779694765,41.99780341600828,-36.67168957829418
-2.937143239801358,0.9758278957422095,53.02387551100368
-28.697087605041965,-12.39233946525229,87.02952200052458
10.425755916380293,22.879787417789856,-8.87749241888565
-1.7217751414561167,-14.242830174408132,-109.06294567913439
-9.230669273269521,-10.279135381050356,-24.597932067927943
-8.745939261628346,-7.094688587074178,17.23686792280891
1.024648991850043,-0.6513000140294098,-11.401996002779756
-9.448809495304557,7.815883116759875,-172.08037006575208
3.348793385760963,0.5030590630049637,46.63421807185049
-12.622999753103278,-1.0255259090902793,-0.192848742901828
16.06708729618043,10.727865172912283,21.891338991905034
16.922221618396105,19.595399667989206,-4.547966512341481
-20.112597601942756,-0.7470903611557111,-105.60566747604014
12.166444544428803,-34.26002873457852,-14.419726867338504
0.29297532887810984,-3.0455094571469306,-99.99948544755861
28.534830089608946,-16.440628814978815,-154.96655556503276
-12.302670187240592,2.584954299701565,36.10795816212226
12.26969782473889,-19.256525794116275,-9.997103376760185
-20.547607626474285,24.213743619722738,-59.59853005730339
-16.375527996242806,-4.403910668096969,-85.85088277145067
22.77214048373264,34.88471487430128,89.78464110974006
5.510691702491233,-18.88867666283532,-99.73313927106851
3.8343227822827517,21.278845299833183,-67.38540898001416
-35.31806112237025,6.687921670699997,-36.48689364144997
-17.957949800268786,-18.659183829836916,164.61637597812185
0.05194356459879994,2.5828068919283496,45.876169755457674
-19.60967774469005,8.643208684005247,-23.095448755077264
5.120455109697879,3.030005321716441,-51.28664627238896
-9.294514878643389,-4.833155887909257,-98.8109261863999
-0.7475296855608901,0.200558718539681,104.60735812875622
-12.732735754532637,8.892499811441258,59.47345868708245
6.864134047017993,-3.7444042797457473,-125.50401152802544
30.108560485563448,3.248275152644629,-53.235959931821355
19.64628728044395,-20.79606529733348,-0.956134761150765
41.60682166064152,13.728892981308526,-97.68353979892132
3.2694303409097203,-47.67650982253594,41.25707091358829
-0.4003451609476986,0.4728006200169212,-83.56260819239859
20.699853076322203,10.818063639640398,60.41395185778966
-8.552589363977262,1.0607666010219072,-32.59584442423202
21.24331180168773,-8.684396738277524,-8.678238656816669
-4.019729942795571,-0.8067011841762793,-2.9374739672576364
-15.728563666112883,8.877290853758952,3.1151498095947416
-5.2578553177886285,9.06620969101078,102.7889658856229
-1.9282896527655886,4.4860558969637525,51.42763119746818
-2.3033388679181224,4.951447359216908,32.224715847520315
5.708640083303107,-1.4914704116689477,50.60238531491726
-8.474935305884022,-16.579915340714162,55.70157214983428
2.150910629579628,2.121954994045469,128.38157502450682
1.2893143349539287,-12.21445613228532,-39.79854959450834
-6.150378823155658,-2.736280451924759,74.98119708033742
-8.33335930616229,-12.987821009526925,-88.45965677955849
-15.437086683723644,32.717208934423134,55.28975178684463
-7.056940428115387,-1.2440416156945928,-73.93963930764814
-7.685503020982482,-11.68691654660457,-109.51137275341463
-1.7852556981876049,-22.11400171948037,-27.51611612325928
-3.713296857126479,-28.231273877890377,-39.39324221390507
2.8859333615588985,-20.568530872769163,100.39276105976636
2.421720432942195,17.198706680172435,-113.61181413162625
1.6339990663865165,-0.521012645046823,1.6799293560478878
-17.730807233043475,-0.9591578722356245,9.444009290922779
23.932207756664546,-20.82161302593218,-92.40594077310662
2.374772594083871,-14.700003904008296,-41.30874497945372
-3.632774941807689,1.8242781966499846,-90.55414847257104
-11.95294280893175,-1.2687963087376088,132.27754334981975
-9.333267337760624,31.92730945426011,27.928118174855243
15.279368953093057,-1.3567484525834335,100.68121743429744
13.026719406482163,46.494977721507915,-13.010467513542077
0.11827621538283471,-4.081771197152781,-62.20394096031876
24.066636080127783,14.785740475295347,19.570044753474257
-32.95282891600214,13.339204124203619,-107.08286106166685
-0.30981859388218874,-26.069386114466628,194.3890474166678
-5.588473390559751,22.95596227940935,29.932988435088166
-6.161726579039313,12.78523577208529,-129.8180239957316
-0.17983489858318438,-0.1944191249845226,-15.445595790783933
9.092484830609825,5.912866952850495,8.03727526894358
2.003164763385866,-0.27348856696449525,-149.6371894947826
17.365835274161576,13.415688656716704,-125.73870381747892
-19.05612083905219,-5.104071079123383,-168.03643678508996
10.280771537693001,5.534547077059032,165.46579450452842
1.1181534533529909,-21.61571886705105,41.64108552660951
-22.510586399241284,30.624138076528247,100.65572695788273
1.204935914800791,-9.435424505904104,114.65504192629412
-2.6498016942317206,-4.27026353482328,82.02887076389797
-3.2840947899880764,-14.856060718353008,3.6040417034948904
0.37244444089236384,-14.065359273805274,51.86356396212415
-1.1028458445985565,-0.0017369386923343465,-64.09705294156318
4.699698712886157,-9.008101286024973,-128.47955465087665
-28.772917897044568,-11.517169450660726,-117.13889608221746
11.696937316030535,36.406221304102324,-13.582251864805245
2.1280143764565773,2.229294509975685,-165.45001478690236
-6.499002407159646,3.4627848538092647,-72.22227035152802
9.294628701628682,-9.38004153908918,119.66126068830478
-6.944936823105918,-47.35869754110488,-173.93450476385036
-15.868590192757027,-5.842490887797347,13.608599610746767
6.110850143204737,-2.9196036940703816,-107.04269041470711
-5.2990725217630175,-2.6920479747413797,-126.13950020977782
17.248262978207983,-0.20013962925228249,-105.12793614890758
23.310232233939207,25.38952623153641,120.09804214291759
-3.307163630794308,-12.959259934454655,-93.3207393049281
19.18851944949882,-2.1439806228057483,-15.600865882381845
24.858670638646956,4.734041903589913,19.240191994219042
2.296123257965253,-26.21063555401247,45.18079777279349
-17.69516047936044,-11.179318054407574,-37.97890277948907
8.202420476967621,-33.74014230419378,98.40786281747302
8.724769277026907,-3.5975007326537862,3.50928673812764
-1.7163588844276867,-1.0409695523485885,-18.51657501070047
-27.09417745997027,21.21465906760708,-93.77955448770035
0.5148885758226862,7.884909973638312,-34.03564331865887
0.3352799313523674,1.2717270136653798,-58.08558687665734
-4.4490308903770694,-1.5258200608036294,9.852325125641826
-40.5703361702193,-4.653772979961179,-36.797407847982825
17.606404237638056,29.914655183783612,-67.34476775468038
6.291249900085575,-0.7940363929636356,-56.251238498600095
-20.994005520878087,-14.48678801093729,-14.107285185852103
-7.761275140759007,19.96298972495504,-59.58792092283848
-5.441302729828867,-1.2217134114141295,105.30934879470719
-0.23226120865045888,-7.700832490499153,-181.61357960918338
-18.634058155375698,-27.4345480936437,83.19037179044098
14.168879931236503,28.72487671519434,87.01542740761393
-3.243136856302015,-11.202244882910481,10.228783606406209
32.79459480343352,3.7168909183088865,-180.74456226084345
28.618496720132537,21.080927263806586,-34.19572498779205
-1.9928974321322703,-1.34530542053563,68.31904417698823
-9.75097765631832,25.442362775093734,-102.77806882572055
16.98192622535457,31.92674863674464,57.68946844850479
1.6558213362734238,1.106762780014107,-89.10462441856278
-9.125949424601185,-36.059889524320155,0.6123873715409689
-42.054004949372,2.336408059520353,-123.65061284274988
37.00826255384569,25.817422404388193,-73.23698626923802
8.89013733757396,14.614302129895318,-35.22057335474898
-3.1072364356765845,-12.000872956454769,-64.44056406991403
1.2483289299484226,-17.364568221940957,-126.57350166246219
11.275515125804557,0.07026082522778768,-0.7844672149189817
20.442769454525184,27.43187238077096,-72.51065235519211
8.800816297389604,6.59461913275198,17.21386979840183
6.957489934222854,-0.8326174421452939,-9.867186454655606
8.534952116205439,10.784835270630118,70.84718155950165
23.099445002266027,-4.860624532354995,-35.61240373569782
-0.3952258631076653,0.43659599209505984,-153.64021138488098
8.943994951742036,-14.648502588972875,-54.461213223171534
2.308372205975267,22.511308332713835,-142.9714714821275
-0.44321139671293935,15.81363027132072,-45.95755209506893
-2.6429620738234525,-39.38075353733641,6.748663030691479
15.05857691309443,-20.30227814944321,-98.83170679178939
0.6479050127410351,-32.04279241637502,77.35245377974054
19.387381776868743,14.838581329499693,-98.3801455861155
-1.6816760570843736,2.1536190834311135,21.25504140093119
-1.484705231827218,-2.211484586739299,-50.96466325857747
2.5391019930981997,7.478365217645999,129.70664405599442
-11.985256481282663,12.970927627693687,64.40446237399034
-1.6140920582031693,1.9673244014436009,29.925879128057094
-3.6713714264133244,0.6400664260729472,27.5827297635368
1.8569110444244874,38.37075539531674,73.42387531329139
-8.935913057812359,-28.34527266591782,114.70964027491131
4.442446310828124,0.1845789027104844,40.67766932887616
-5.427000399154944,-16.203203262416018,-149.88809244241511
-0.7075829252723947,1.4851639566060437,-92.63008447987269
-29.0058014504193,-19.570505994516996,84.17982342095162
-42.66630697303566,17.57190564421732,72.4026045732483
-3.053302130485166,-0.8601306946530154,88.75154334834428
-0.14907698144092912,-13.195989811430724,147.82183279576034
-1.5142156204407105,1.4699434284324369,-23.343219839780197
40.53452242383316,0.7824137853724675,-54.41987408848643
-8.211696341874353,9.224033456897972,-112.1087991535104
0.6716747179233556,11.403488732511454,74.85044220917119
3.619574454665599,11.862818243702414,-17.96624926983558
3.8199944187259267,-9.117818324600284,-35.524772815179965
-4.382972867778863,-1.798704031948658,-66.08492256457912
3.6507230838688507,13.462576097377697,42.489911477844686
-0.5163575704132297,-2.7952212487725734,-27.907762651948698
-1.513478376626547,2.128300649351112,106.77015982042796
-10.262682335879253,3.2428574763194624,47.57756626738265
36.931056167034036,-19.97082677488488,3.3983656458994433
32.76222724409439,-26.778924883813424,-49.70035279369948
-28.14792868107789,-29.129385788411575,45.823397182367245
6.8987175935518605,1.13146821211572,40.79712329198293
-0.3187675595699784,0.2754553785521383,9.733704957491334
-15.476207760512034,-17.21049684787816,53.76973295959444
3.970603622858009,9.124558878077163,-46.118563137838024
-18.114656145532905,-28.83384790179572,16.28101031169034
7.234194379057947,7.979303033139102,-99.45100216135138
17.51590351261401,-22.302096848525707,0.12554833771452517
-17.553260679317628,1.803474593066061,-79.92415818584169
2.9544665394797,-2.4474749609731186,117.96168906083932
7.71572265937195,15.421592648474917,-5.991917837422285
-27.29993218754302,-22.586995311357548,-83.02945237863895
-22.75054280562115,13.680387956362127,116.05532600713089
2.872443852099952,-36.5392481499069,-51.004415045130166
1.4706825053010952,-11.492005744993177,-160.27293938665395
1.2279702887186728,20.803228811812538,56.27225049211874
-4.361827845841742,24.664460447981284,-24.71118469182108
13.177088891598364,2.720876714481721,-96.51529587978752
11.040257320541237,-34.14477870012575,-14.450280031611495
20.108671485026196,-24.86102855318689,58.76801203705719
-0.014443320928116007,0.05440186571686681,-95.07620140459017
-21.336710904111204,-11.99718777706538,-38.39591173948392
3.227604463603106,-7.936564406292088,54.80302744754306
-9.725071095261633,-1.0744931854770217,11.68616760946541
14.86599879929605,-36.3625292496783,55.39039245548477
-15.648046380703025,10.761003560882699,-93.22501116918995
6.253076862827561,4.84911289987446,52.8504665381535
0.6578653489627311,-1.4511821872374457,-20.713575940580114
0.5458372306169655,-14.205435802706038,47.11502691065402
0.8335789997613205,-2.689566613617618,-92.51034197732552
39.83915096590359,-23.832589388014206,-70.20866976717681
25.399668821984307,1.3767296120770944,31.557238339680723
-17.35260394016797,33.839879687041815,15.068330853640454
-0.9963790884901121,-6.422818100629453,15.7201166197907
-7.96053121229568,11.84651018840274,132.04189848409973
-10.650660409826216,1.6878447393924623,-185.03657496170962
-8.703841452891913,5.8544299247561415,-17.028089834479392
-0.7953594448496482,3.314652129450213,-35.42063443803092
-1.0652798389587947,0.8988077269080313,78.46397183629006
-20.326744729799625,-7.975765502767064,-64.10239585984738
1.1778154785546426,1.5337610859782154,-79.58136994413783
-0.12384751890895877,-25.287235092849418,48.16130113849457
-8.095460036924182,-23.660063942172666,13.812744117045172
-9.70149623234699,-1.6067287264218608,50.273143483984775
1.6061973117320891,-0.30228492806731977,112.4726981210294
-2.543067311621204,11.024847892485125,-45.6013173824303
-9.569711507146927,10.657460923680782,99.51085376740693
-1.2618162044046668,-0.3657268389788197,76.8703293762713
14.150207678813832,-6.734621660961673,-125.91919188016787
2.2525371457238794,-17.535036762741715,35.60884983172171
6.846979102267077,18.666550880444387,188.74297962231373
3.671796891606616,4.330381100971729,-20.745963118881672
1.0604404296475651,0.7608646711729938,-41.060758964009395
4.07356680415402,6.1204686170019365,32.52943683772783
-10.892784200975353,10.820766788225038,51.962328910903125
1.3373510520994498,0.7205814400588119,28.940388613280533
2.5786469986869855,-14.15370514078138,-23.1283247652031
5.403603756077004,-14.210117070039008,-41.85552211874734
-23.631805712438464,3.7690379245343677,-118.92841060098237
-30.98255558103568,-21.94654828104176,24.74513643924867
-1.1701571694581718,-12.289465246476862,-152.08862426113802
-14.968583659811786,34.638923659363726,139.05866432797833
1.190701104315084,12.943635067033512,36.18435575463021
-36.133092172645725,-18.519481921214137,-31.441630478179082
1.5932953738276243,25.00125949804519,-30.843712702208194
-3.4459878418266334,-6.383449367074685,-57.977954579176924
1.0598309042776466,9.972034367205792,123.66850451294783
-20.57636382560585,18.441206633267463,32.30826579749343
-1.3375275342632222,-32.34268337711847,-65.40542230265282
-5.850151180728927,-14.723552515589793,-18.582700813454583
-0.8482582918142231,-32.07901418755555,56.36492686607656
4.878481896408828,4.014690249262008,0.9351067493242514
-6.947576168608882,12.096921640218847,-156.15248400384195
6.124145618414106,3.898701738468704,-112.44518880210337
-11.219820691802585,-8.69104524788399,119.53235917858444
18.610733723166383,-2.494240645136491,33.309601033364935
-12.021546907965508,-1.881817474728716,-35.60619277846582
0.8828567825641108,1.9752323165530872,126.51528043550027
14.25574710295063,-11.833734956972908,-64.43559386308343
1.3363648814670364,-14.930521500467059,-7.840131162309605
13.765834416778189,-38.508265865753295,-43.143301342443664
16.061969580992354,-13.499273405778519,90.48147530359473
6.615677507107284,10.99303705369739,-22.106037710927012
-41.192921546666376,5.588550247388043,-108.97959339086273
12.310936747520465,-17.61805491843078,74.03628712420934
11.31032958749162,-42.76815035162151,32.45401026751625
-0.25318330298545183,-0.03672639808834993,12.625864152226619
-2.6911978740286475,2.8854673826567545,-18.226997209360206
-11.348437583121388,-1.747346473924601,-14.716978326489624
-11.877351535714089,-18.886396662862875,-113.59135783001204
-6.772828713021302,-10.378305540654765,-45.954975112037225
-26.66020967338577,-26.228790910337775,-36.871472500747494
11.511672502845588,1.7498313102187428,-110.73503625579781
-6.595859210041825,-37.46926730715325,16.269275306946316
-35.49065982098788,-29.69523404799088,178.95666981255255
-2.129394577103291,3.119376190084829,19.40877812060524
-9.864676029301195,-16.869966042766738,54.11370673764201
-8.716724859423982,5.754458638007352,-7.784449141102112
17.832585937474146,12.82339756987741,-33.87823196386673
17.490316784314622,-16.339414423052094,134.67474105876622
-25.78145698309354,-17.098937295975617,-41.20759391302456
-31.713922823116945,-18.383624975949893,-169.15544505134267
-7.525674047898007,-20.72879376657964,83.4720975285902
-1.3886930473445116,-32.08386678771207,-99.33870523545151
-5.511884923287117,-42.59804209672001,-197.8513808082747
-3.0848769777356533,15.017406168042504,-16.84737277645942
4.545528909304868,-23.264680085152698,-39.27259302625137
9.919766694031779,0.4447463213129086,-68.12334189968688
34.7236633735693,4.026753896200009,-127.05472358177126
4.693625377011553,-3.018799942336197,-117.39641278220954
2.2088189513120677,-16.74815861544775,109.7510342381756
-8.232530997197237,37.27069468991036,-29.499563329082335
-4.040510257545447,4.136170927121233,-56.15013738501127
-2.799341272889721,0.03822386048715939,69.41874083440182
11.829475996958562,0.598828518210767,143.79765147379518
0.17202699750311554,2.254920932347993,-2.582573862412376
-13.272836790126261,5.503004407234927,-37.593623163435744
-4.835173062817615,31.090413713764686,-16.089537812719044
-2.914000914172619,8.072433191634353,-11.686831512406243
-3.8500179398477874,12.089310462075124,197.4821665587028
-23.570356816700198,-0.3553513887572259,-14.138692969715644
-6.420782537860702,-11.05260530396058,-106.91545290948883
-14.186692403588495,-2.06370065404646,59.420366175027226
10.382968698797816,-0.30812949032960407,20.667462625688806
14.600353837856243,21.2635431760601,85.9225061015892
22.38752177725897,-2.604875148249236,133.16878540651095
2.877589059325819,-1.6605110437592963,8.718318994217295
20.14667434420872,-20.05139968474062,111.73419801889857
16.26651643530789,17.553382225812857,-22.548458470189576
-7.340368250206933,-18.103712248188398,85.29561159991775
-14.545767418123202,16.639381722723115,-87.50496709027746
26.015374819306583,2.1655232821301302,-97.84941560380265
-42.534265815749094,11.017498920707048,148.7081251928383
1.6564099346989885,-13.787555233638171,-108.29453628457549
8.073358832886248,14.443836324392466,178.07757663505518
-5.388069093722747,-0.7569240698269627,2.9581524117406275
-21.24524630486427,-20.064704229644104,6.115587157013181
-12.411372946234238,7.455741814670687,76.05748775088473
-21.44007450859133,28.879083749628737,-82.25852862395021
16.838513909263966,10.986979452027397,-51.49269213214098
9.412194062062142,-4.711441992069532,-80.55201741940334
-4.512728848360212,-9.49487935769749,-166.16254565540615
-24.22279011358909,1.0933893255675267,53.79005973945156
7.203235018574003,-0.930855755641799,1.3664701705154019
-1.7290310592578333,4.329306865722748,177.62860351382383
2.8353607965044727,-6.757803282213176,85.07312871417562
-6.412398111802141,-6.084520840029046,-4.444339262547474
25.253389236813568,1.090826795240123,-62.25940183294237
-25.543509259616954,5.860323053651769,4.132213623545925
-2.989561441329229,24.43030275024911,-64.06687052516236
18.778281495207377,38.95495354782943,-118.62506826369072
-25.74017831208468,38.050222442276926,-81.02445768548641
-6.530104593737793,3.091254553700832,181.78791646948565
24.41288577977276,-4.8691447518255835,-112.01725829448654
-26.722348646641795,24.914095664069848,-43.322577825380506
-4.123106835668387,-18.355793539670696,33.997462446500975
7.332649248424542,-5.366636019491207,-154.47422480653995
36.43106169755122,-7.129738276172367,110.48371492935611
3.800686087233053,3.5000585043903523,22.759462370259975
2.913094033122397,-2.104974570351988,105.0010768663898
-5.180373744123663,8.209176509121114,-1.9913832600811754
10.094707925562492,-14.734915414414697,-80.75614164998082
1.024216167519461,-9.785507652283776,-77.01075638431661
-0.10905869271020327,-36.721131539074214,61.26557480728264
1.8161228267195286,-20.882790919990818,-29.50129740615865
-7.335794103707539,-0.18178040874260673,-145.70450250481113
6.659020364474652,-6.859070099197012,32.896730615807826
-7.22282240443813,-11.465300013806623,95.0842410232945
10.904698119681813,-8.01369931946414,134.46051385010435
1.4306705755110052,46.92797504920539,0.6020588179950176
-6.8595275921459775,-13.258024363598418,144.11067841984337
-0.4109569313179654,6.737018771378093,31.606237422004995
4.983208726829552,0.8301024038271926,-130.20507698742898
4.443703322219942,1.4951935578353714,-112.22120412057157
-15.001103622345987,3.1416709385208716,-59.24645084994644
46.24307313973192,3.193738359305568,47.572339282852575
2.370798552622764,-1.6232033477507468,132.45313120721102
-4.302302172761196,-17.315735834890333,121.92332008816051
-10.597537203878469,9.864331584142056,37.920526411796644
8.588005044399114,-34.74768089260006,35.67292216745144
37.08320956707371,5.250488460053099,-85.25916957513513
0.41040897010497307,0.05525132427752761,-37.90480649056908
40.012053586420784,4.143607911341192,23.676584229653606
-4.137431614419663,20.806706191362387,-97.37706426364636
4.762304902862539,2.4986766840469383,124.98729378822455
-1.5597067702142247,-22.210675603241036,130.48485716907877
-1.9818833390874275,14.550344466797855,-7.291968661762245
-14.044620214853618,1.6305223175765209,-9.928763258065077
-0.5545780100689779,-2.446875608770871,-64.5806896232218
-19.690742194455392,15.225033544740734,0.937140673103466
-32.85617268675359,14.642622611631184,3.348712275047446
-21.539969496570457,35.105349626134455,-147.9248687450141
0.16376251589655166,-7.531407136110229,-56.02039607698129
3.4668114310768825,3.887435669500333,58.047883426127655
2.3032920255082656,-8.467450625840593,-10.758165642999135
-5.986637039752096,-0.10585290873801571,26.33835278840283
-2.8710158972890487,-7.925200948790225,-53.651505920315515
1.3063403282583295,0.6959567243853958,85.39719382450683
-4.988771906407673,-30.097547770525747,38.665900109825465
8.696531821496515,5.647158227419223,83.18844794139729
6.556938949974208,4.072956817919805,-23.741884631919216
-1.3736377334171426,-10.047249420620512,-114.8617609521444
-28.088917292867016,-2.690670968506747,-30.18833012832827
6.003769894678257,-2.5967412598578963,124.4230075237731
15.876526515797243,8.54874493370073,15.279592219318463
-0.15488304878761489,24.683313059251137,167.98865879974417
10.17550701368429,23.311183767708144,-139.21853704172932
-0.5984126842256733,-5.412723886195743,-2.2527728212174947
10.276655904512403,21.333087949505796,-152.68043226278297
-1.0646276919986077,-13.843458100862742,122.82850447154713
15.485196915507132,0.6386999984660914,19.845449538455387
2.6866283535130635,-11.253547548350436,-51.687080610675764
-24.524905359639476,-17.51031898238995,5.270711882177705
-14.645788933550072,1.5453602986797872,-50.351701567124984
16.675155486175626,34.235173722724454,44.21321941485515
2.9730614514184746,-30.752450668447604,190.45347125965276
15.00700954716787,-14.865889056553877,-79.7951064631477
5.131337815616519,4.168486060597442,46.39327969179271
-22.43229183989819,5.311159705747812,36.96869464113895
-8.313046510210231,13.225174951892672,-7.638835631601711
15.212966843737185,-16.12092604517719,29.423525051947003
17.499069374627496,9.429307889249646,-51.14412890618466
-11.812328975110006,-1.0845916757384049,-98.2069637162311
0.019659770214272742,1.7511333156924325,11.351226275715785
-22.852161208086294,8.2100848540565,94.50985644461161
-4.465598234019963,15.551818434563213,162.06894990023767
5.495103073080175,21.413468080979026,18.419810069365045
7.859726153828726,9.089955280659012,54.07150888770917
19.980537208791073,-19.24429488879026,-65.29430543315311
43.092765024792286,7.305958769496999,-36.6337037531667
-1.4533790086298382,1.2122763393567977,-55.14173520425495
-6.579665554964925,-49.306430543938134,-104.67239521351321
-5.7791397700486735,1.7610822375898465,168.7940155784287
-14.10818670388487,-7.9946713584196125,-169.8989762764911
7.752714193587213,-10.883266691727844,-40.76686271759404
-1.6907742922315712,-0.06958468083302867,103.4742214183782
3.789624871807673,-9.61563468939748,31.549562361714294
37.134765239616065,16.78071481586467,114.66741209886095
-21.056956793998395,-1.0881494323261334,61.92156709761129
4.3190739813730135,1.9644545222876968,-115.4219418205214
7.393327499962744,2.7670365135852566,-22.388134302813757
0.45956702464834526,34.222447574444935,21.075262068769995
-6.70420729637395,-0.7977531704478462,-27.601554746926077
7.476291753196906,28.797248605326764,-92.39056101754453
16.04635724966026,-24.26518735197189,95.02143400028741
-3.1273771555358745,-3.6292722507125563,-4.535434193609218
-5.472079099745591,3.7892896134092604,-43.285592672365134
25.81823657172191,32.88226294452793,71.90872014835604
-42.117454593382995,18.07761188601009,-12.985701597758483
35.992162242433785,-5.984845670618615,-49.98927996548454
20.324359012123875,25.941327188954627,-20.130988858359295
-12.385338398663064,17.214085244702066,121.42358512369653
1.2240936221657253,-1.2722143898237717,11.286281400349184
-22.03964991153254,-3.523028792811249,1.3095288307964303
1.5243714166989548,-1.7710443697533134,90.75716717520145
-2.8170274189675113,-24.146428411400375,66.09879931973498
5.01365273313878,-49.35123159684185,2.463078696082364
-5.425144902376843,12.113591901251842,-82.43482925321484
5.349129480932906,2.4674138119644065,41.569226589592425
-1.0514739229960623,1.3309377308684505,-118.06818701373115
0.5814533821784801,0.10048499993197807,50.450405629697634
-6.259255315977988,-10.841990958800457,-32.21718694333735
11.692706879782417,-23.895489076912394,96.48213501465422
1.9939129308436196,16.608913181806553,137.10010031070135
18.57985667280914,-15.523681790664108,26.421906792323092
-4.986679315522256,0.9232755396479799,-90.74290837503263
-8.08563641819598,4.416538076793768,139.50785442925496
-7.814321211674266,-15.343829710419083,-179.49332738994644
-2.413115069987693,14.353078089188337,30.548344250974502
-6.7400044080673975,2.7975216001899836,144.78655073429724
21.554708136046752,3.03056119150128,-94.87473571195831
10.911345447096638,16.78666899384529,97.15326901350825
-15.0874859280076,10.180303585319045,-19.29924181987355
-1.52891218744132,-0.7313181891351361,31.80538688881124
0.7626818552631885,-9.426466758783368,36.13318396796228
12.711016795827403,-17.692739792780795,-135.1109615635096
31.996944322279194,19.375848703315036,-50.54660187722237
-0.17984584590527727,-5.588835779936941,-76.85931489828414
-0.1673670637290351,-0.2012011940052393,42.88929083714963
-10.292303580789019,-5.875612920099598,63.93518566173436
-2.0450574478044405,-20.474866474638674,-35.96812147047586
-8.341700400614087,10.15237611370642,48.993883043436284
-8.660290888772193,-20.299701075550427,-21.564424979774948
13.30860170601356,-3.3141587968985706,28.64560461710115
-32.944877122423264,-5.507714930877605,9.709205509076183
-16.664988182502146,8.039386079770065,-22.3320228048306
-8.448427843945456,3.178020852686878,41.21929702288531
-28.60651353821828,7.125790032040102,37.276938285556696
-31.784675490220607,-2.474641567067234,-34.172925358532126
-37.08106590227294,9.613949044088798,-48.596158949044636
-9.220923461959606,47.153630926394015,35.37070972920014
-48.89413497706559,-0.020133059408631804,-40.40389789860114
0.15277713943963095,-12.198571530661429,23.12502309887395
-6.488528981578253,4.096808757456757,41.231859467333685
-6.166259793037539,23.42709008628996,-9.288823805671743
-14.351294477824181,15.812187594775002,65.94226364281778
-0.7271176431172316,8.930874170329625,73.19485613007744
1.2633428505423074,-2.87721370213112,-26.52308163811466
1.0475690936643416,0.6992112816749164,-37.093210537534475
5.203727722419168,-4.335357689833531,-14.76171198500753
25.992773225202697,-8.414597267508604,-21.340441675054684
-4.976896973237722,7.405246743617341,44.68488455867682
2.6520182529963963,-0.665031971538966,-31.653662664992023
18.56101529404682,-3.07025368980647,-63.51478576028593
-37.003801755831944,-26.053447799063633,63.150373534523
17.7203221348198,19.67222294741945,-117.3778675132977
4.017726207175806,-6.7959760203412145,45.50876669125419
13.263877510810794,8.671115374785266,-118.24733935262601
31.04264847472356,5.854160361045692,-20.999208259870088
16.286789047482223,24.006708090259725,137.4053282460739
0.9039533090385405,2.153941527322686,88.00465285597669
16.90164597634572,9.533181912212056,-46.021291668595985
1.0694312254388576,-14.593623461036731,-22.043692789239575
24.508684685304605,1.368463119323076,195.08064447942002
8.027631601815724,-0.9724889712395867,-104.87437754281595
-11.498609151394831,30.34136358211028,56.949012135246114
6.656442856766172,-41.97986805489605,42.242828951418566
12.165195519759417,12.257211735756439,-141.8890021321663
-3.340039076578371,1.9377368720345223,120.45521329707294
7.919317013279061,-16.426352066337685,-64.10136702484557
-0.37592276637744526,-0.7511400383677681,-79.91320602852751
-5.425064121082805,-6.579404198143487,-5.609889222948118
-0.20943332242794035,-0.36642442651574525,-29.20477259572891
-3.6276099591252695,1.1427304872629476,34.866972964531364
-10.949628882849737,21.567540571085935,-75.61081031344382
18.788146617231213,5.0427014184586305,44.90916536979316
-1.332194989967595,-6.468517101253854,7.40679179630933
-15.009309990647681,-1.1307630841093994,67.56803318991975
3.0334784935059345,-11.26078795887417,78.59314741093392
-2.6404051250366902,11.742690915891927,-70.70356248183045
7.588957853790861,-24.824468286999732,165.25653330308648
-17.268652689971272,-24.339858068885693,-33.585871238722945
-9.24932882816553,-16.249470659000618,62.65381453953292
-24.66111550091716,-33.34758081273642,-36.25685500492008
33.52850618598343,-14.973544780694596,-63.86712531847398
27.715218272736674,18.317520271542712,-91.82876603605263
-28.939883532548354,33.49262154953216,-76.38650292317742
17.698704085381912,-4.7370691826928635,-68.34918613640085
-1.045319856204237,-28.60844742377847,125.6119781953141
4.066916815416572,27.375869869550094,-12.4603684065543
0.9958996870679347,-0.08957520980076294,34.03646337985638
-2.2434596292241547,2.167509957798739,36.16354800846842
38.58374743584713,-13.137251404496125,-1.9659069538144909
-18.177828080771036,0.4921824649569119,81.8937538467605
-2.246860956992296,1.9847859848719058,53.11664143155611
-7.358399934987837,-21.429599770730764,-32.67986541834306
15.717504257956724,2.489120866387556,-81.92880923517093
4.680176695717484,3.389426913284276,51.21627233281612
-2.056882944635821,-3.4039554815944477,-58.84664907627305
