-84.43857837426923,-119.14384143606158,-77.63709091965534
-61.370778009086095,-125.57327423512453,-66.16459747322973
-133.02592782064474,-102.06863469592219,-45.49068879079361
-80.95303048462448,-81.98332365938901,-78.79957777871664
-75.6573753308548,-119.98198898807212,-105.33097115742592
-44.21046957566864,-87.49964816161449,-77.56716333656871
-64.57038362343845,-57.04608699900216,-78.58673032184355
-111.85642557077401,-72.82468880618634,-79.88749108243212
-58.96824323149102,-71.47547545011594,-64.28007949063995
-87.40919647468898,-81.34788368849823,-54.59141964079203
-70.34519845892537,-66.2152686191275,-116.32418996583432
-87.862232220974,-68.03046937646869,-80.91151563624051
-79.65218736119763,-107.71720891633419,-125.40811004113016
-107.74418570626446,-74.83842129266546,-134.46485063884737
-102.69599684590129,-70.55743086087668,-94.98011463046251
-50.01074361127653,-80.27301020319598,-73.018094918347
-82.39614676887837,-89.49711236426563,-112.53055023004661
-93.12430283106636,-66.86184357574518,-138.23516395429516
-99.26642121913493,-114.46771559933097,-139.79444441187735
-77.62863220113496,-66.81138535156786,-126.90023366796076
-68.15313061603108,-92.78622386992568,-60.43877404218455
-97.66765405785574,-92.18184782827471,-88.1482101386404
-138.58644389340822,-99.44398022831447,-128.0244817133457
-130.91956903927075,-69.29257589251993,-49.164013619860015
-122.67342330405044,-66.02288937218418,-42.802754890441264
-91.31683280558079,-80.53777819030957,-91.48957629209517
-100.52278225153155,-117.6197421589797,-80.27947482859182
-99.67191960837933,-125.41994312851084,-90.12999625241466
-67.7796205191109,-50.00308909429382,-93.20527364512103
-92.59422264288706,-91.9119538366005,-126.3957575587972
-114.58706980252845,-79.8810325048076,-120.9088314776414
-72.4546810333654,-62.332375785012374,-133.45264001182323
-97.9364373633416,-107.57888937030586,-77.33889209683662
-48.34582571505912,-69.5579269485472,-137.38417932317964
-64.209765627291,-76.33868868440311,-114.46860705759505
-79.95733231163382,-76.32398533905389,-103.18048462908264
-67.23424828683005,-94.10564783201644,-53.39378866149543
-84.52002326899249,-79.16972138694402,-100.43562547024189
-86.7672832173193,-71.12300422817208,-109.70119700146249
-93.56623911309114,-93.75428888281385,-53.68776558034254
-87.25105085599978,-101.61232787789561,-113.19760401895321
-81.10184163539638,-96.35044196502567,-137.90021799822668
-99.10457171190919,-110.34834860900295,-65.9773845133978
-78.79844720998409,-123.54626694159951,-70.3671197787212
-90.55727211413404,-90.90918982977522,-47.132122618087664
-106.36716017929488,-114.23497035560992,-86.6141426866716
-93.92322823087736,-56.868217058900825,-139.23694142209897
-119.50526615924848,-54.57729160151922,-109.20915292906143
-88.26528264014584,-72.50529194927223,-121.00217170052555
-72.51959951258817,-92.44728658438854,-76.98710688325357
-134.19945559445222,-104.12153875139134,-130.22468509449678
-121.01843930854608,-85.94669514425377,-116.55650784749928
-101.02162036691368,-77.0065709071221,-83.79266353181896
-94.43067681919595,-60.43129353800785,-51.216280270520194
-84.35861113671176,-88.96498429585226,-80.89497942199844
-105.91861922164907,-99.64897359245907,-111.14352019040943
-116.52433000985678,-131.54727892420087,-65.44558171383278
-90.81765600588311,-53.919458345792464,-59.977770150148515
-97.12529219215246,-83.70364110857331,-73.2040159389188
-83.92676675333045,-105.90305940253035,-100.90202051591052
-105.7293268927767,-82.4379176353552,-87.49181619265177
-103.98764978490706,-108.03049299891363,-128.0387413389823
-58.888350867046,-114.41623924696934,-101.80463445228621
-87.24302814740649,-63.75465526382176,-45.52971093577725
-108.36805889471704,-87.91315370756334,-52.22895269498165
-60.34517655731635,-97.35014649987328,-95.80558164163223
-45.62008497925151,-82.65772031755857,-79.77286541757084
-114.82060386131177,-74.73677921040121,-111.90384866668961
-86.28014732793945,-88.08800966373221,-124.61281999730052
-95.97726097777287,-90.99778323610366,-129.67209357779996
-69.03325315448467,-120.185600300396,-89.4319681290099
-59.86979989362902,-70.0147403076065,-68.33129430028028
-78.50632943171136,-69.4064387730973,-40.36505192461371
-88.90271998925871,-100.1026747430791,-44.164196380507654
-92.96711970218301,-137.08826608034974,-67.32573596985932
-114.44422361608855,-125.70827911467316,-62.74807882911648
-78.7249161301187,-95.11529878443518,-68.90719218772462
-67.30451822354678,-72.38978726723894,-63.53969580695312
-65.39865501278706,-106.9080897112972,-55.18658868806643
-76.6827013400132,-104.41734605954092,-109.57476676326411
-97.07672565217138,-86.10168719221929,-135.32245714953643
-106.98548864285756,-83.45513662861018,-106.4669075028697
-92.33198062221247,-132.25304119063156,-108.98660797951547
-97.57438318046431,-74.29601383999872,-126.82225357601679
-89.58225968589127,-43.531575988907825,-48.24140600909657
-90.53970167019057,-89.2375198249688,-104.14457919623946
-92.9380317183872,-92.68282988791795,-55.333194571699
-55.13716459645712,-54.578810383069424,-114.68367919837908
-82.20384643288666,-108.65878862007119,-108.54460120539292
-89.69750588832757,-101.98027128311733,-114.3486479145698
-82.21432871236146,-90.32443285016134,-120.28112741822639
-51.43014219791629,-83.84748681572111,-96.89704797494598
-63.12389792483377,-90.55767658190007,-95.67541117283801
-96.98746359942555,-80.76088037523891,-62.33706255149228
-97.16575084027072,-99.56670785026135,-63.02782744352049
-131.3280563269155,-116.03696074483216,-43.31826938409968
-86.39725718197714,-75.50773236574565,-106.72609409994551
-55.87707380187152,-96.49528672935413,-135.75218451029139
-88.48525317012768,-87.7542602871398,-43.805012860656554
-87.90107218002953,-129.38118200123682,-71.70192581980548
-90.48685755074952,-119.33864316805845,-122.5760127762463
-120.14877756663839,-88.90221235989648,-109.00830661944673
-80.95552414835471,-72.77615892560479,-99.8059541527937
-53.75822423716682,-106.72731791044546,-126.17615289462668
-128.49119788799226,-104.01537203010616,-80.36986896465325
-118.69813739636388,-101.23669401977723,-103.78316544864411
-104.05247252116051,-96.81817943263621,-41.917663856321795
-55.075985170872904,-61.04533346706021,-113.47271647872945
-126.4475163380754,-95.67192580869958,-116.65149015393575
-70.60748692505072,-69.2799417999231,-40.90427355607724
-41.58813287703484,-78.74389415727087,-67.46692978118422
-125.2855006239912,-90.93233407809542,-91.96753347391609
-112.13645786407128,-56.08806852519628,-63.84666197076499
-83.10643516457478,-84.45411333066724,-76.02325628388448
-107.84199134722844,-84.30893115325713,-118.66811601054731
-87.4690217478593,-85.8085095678553,-76.27666902814721
-71.89546143922227,-72.47976925730462,-59.63996086395082
-91.66316332957278,-81.73061989305475,-61.92575714408821
-93.62209702448365,-86.7534516713976,-59.17891297389548
-86.71750087357073,-89.47547362691515,-138.11882879421216
-93.35728127830176,-88.89984412594293,-84.9423393209829
-119.91464244640733,-114.99212866442797,-85.12089133095579
-71.97558078286325,-106.48714775967227,-82.75831512299828
-126.61672439234601,-113.17620500225345,-91.44340343842566
-95.31819065397107,-73.38195797450102,-99.39498637864992
-66.63729619805338,-87.19188802844894,-76.29346098958754
-103.37925559889842,-110.37153230689027,-79.07910988613949
-102.43152636476317,-70.02203959259995,-107.90943670218854
-95.88694574193222,-85.39768490618391,-74.6912634766035
-108.53720885172237,-48.11789718251872,-104.59596011174199
-117.33121538019793,-78.10192561773401,-61.34565848581856
-92.2507379680331,-90.9223443273628,-118.08883963552924
-70.69605538964836,-87.36816275600663,-103.05742709341799
-98.49032447487326,-96.11395696617562,-64.90625641357421
-126.33801858961215,-109.86746009130265,-128.55481733783702
-67.10728127011747,-112.81051303362194,-44.26081679331163
-93.22380226726126,-87.29730248938381,-86.03389867703186
-94.88508519613735,-86.52520651644254,-85.8460773262679
-63.57611825078351,-121.70272865084408,-107.53287755339375
-89.41011744545268,-88.58090195121733,-73.54018864793102
-110.89632169273894,-71.77570409383858,-108.88660893225936
-88.96686391516292,-111.5222423679945,-129.02619155041148
-64.71075618140318,-98.76421797637485,-121.78131501705522
-84.11352020152971,-93.97405652341257,-121.13224025521295
-122.24483287816682,-83.52351305494264,-72.40415547251996
-89.91486027821414,-94.88160527915196,-44.28781739255319
-101.0161530494935,-131.97836311527516,-114.07777155723042
-100.15438823452867,-103.05384444670501,-139.30701796997263
-92.42188592312336,-84.22165881928926,-77.40861813494074
-90.54962413408421,-89.98220828664653,-113.94118886644847
-49.52728911014128,-98.19212674774502,-67.66939383579512
-66.17856255770326,-62.989032012195565,-99.3613042313083
-91.3444249646912,-91.3369722074641,-84.99709054302693
-86.67501192568717,-99.03754355217728,-125.01320951235505
-87.63371787874733,-102.72259227709812,-122.41639364739096
-67.43162239721373,-133.17093245179024,-95.16650307527202
-78.56106141089941,-128.25096819670216,-114.2968872773429
-92.43472513097397,-93.26901462487086,-106.04476367070097
-63.36003775188881,-107.87490647234388,-123.41300645317563
-68.89454187062566,-70.70927131619547,-118.66038562198094
-114.7961803646436,-114.54583698071617,-80.33352892169134
-121.28679929470192,-55.060032227090176,-62.85580672091528
-113.11690272248218,-117.71828145329229,-109.91166529433836
-78.21362020615227,-56.43140804341193,-68.36600219027822
-120.39644157682963,-107.2679789461881,-93.5486391121949
-101.27725871895846,-92.9132413117235,-85.05106010951768
-93.87533981849461,-76.16374323461685,-65.60292224191573
-83.03000854893308,-101.82899565454022,-119.50234919826266
-94.40098781808564,-79.94316370253766,-98.1671870406075
-114.89244803721701,-121.05481221226445,-118.61132106380359
-91.0391895343125,-100.85160376593497,-72.10681271142818
-88.29656489484833,-94.71653573101035,-131.9801968852686
-76.62150958378953,-49.97184598673129,-111.49758018389912
-68.95144938591437,-80.35997116549359,-116.61403529128737
-75.31566624240632,-111.94685712028537,-78.65563706264477
-64.34265047421718,-55.06184519196651,-127.97945937724913
-99.81637962677681,-55.4663211923923,-83.55681197439894
-66.94519335401172,-81.67434261308372,-107.47672261861177
-77.35628634954813,-71.203608698558,-106.1456536707049
-82.14153066523406,-104.8330444401919,-135.20247253740254
-62.94087304138756,-101.27605939068815,-131.81461058962725
-99.39155827049983,-62.70917742767736,-120.21811723611316
-81.68548029812595,-87.76665594346666,-108.97422912613254
-91.14712307234531,-85.23632364093567,-92.32067231508735
-102.53278661092608,-75.01738821541885,-118.92643629735565
-73.66143445693297,-71.13282695714298,-131.42421384960392
-109.84895819312618,-81.99581582724622,-59.69115993711871
-82.29287436453862,-113.89896749828758,-100.17707722062222
-80.62616409560368,-72.97199248989867,-67.2138947624693
-100.59424255535794,-103.07890044408845,-124.64992947635312
-107.35671156247477,-65.6325544034209,-101.38146121106904
-78.32937741251365,-89.51114708352787,-91.3947170125372
-88.91796417531017,-97.45641334524286,-72.35778462495283
-46.54845040876033,-74.24653294368741,-100.0137663810713
-83.01142558620415,-92.94139860435428,-129.32223128497623
-97.55396026923768,-90.50211338413678,-68.46628202507367
-88.68105482556507,-89.69951933837669,-89.50408174182344
-49.250148810452984,-83.99919422747554,-41.48621982757432
-119.3041614732084,-121.97905425089651,-115.34292199753241
-54.495712517519166,-80.35238960890744,-45.556864135178245
-107.88659851950763,-57.68571837200228,-90.52577468810206
-96.4384646639466,-73.38726985753114,-83.80480317686697
-117.17630281845527,-82.8111587874068,-55.69536221486496
-75.01722084412594,-91.70979909268284,-135.77785126617488
-122.62436404149803,-88.94286475156414,-74.30178110761187
-89.6726244499139,-89.3035142091257,-54.217288089992614
-92.927316391758,-91.49418307853324,-104.05219430054994
-61.00421243981337,-78.56740302341804,-126.82792748802783
-87.70063284749979,-90.03860642179758,-86.09815271256157
-79.24614913211289,-100.90079198670627,-115.06552380841686
-72.3160034570084,-67.16825220526655,-116.2509146476932
-96.65664447430431,-89.194052664992,-63.95337656362058
-127.07824086456742,-116.9266974121877,-120.56263309383485
-84.06389989186083,-93.25155018278768,-77.35904502411445
-60.875890843950984,-130.17684805590972,-51.92208236995992
-106.56508262387833,-75.70058368099374,-41.172449616044275
-92.6268863499603,-59.19709875538797,-139.75178193950183
-119.92188591472849,-86.05722723080082,-69.15130322992358
-108.36679332497093,-93.25127210230154,-53.856376365871405
-91.98636214808057,-83.4467773866116,-68.8895895369755
-98.6234865621884,-43.21770033483375,-59.09352825995248
-108.24553190718525,-92.51877632880085,-139.1605665420071
-89.10643771392344,-91.67272646976211,-65.32019279334489
-121.8611860947022,-51.80055746844868,-67.97899061020524
-85.6186140415626,0.0,-19.58320493995028
51.20281213424652,0.0,-50.41063912250217
7.6786736479499424,0.0,-51.1911240220355
31.29355169767357,0.0,86.81849179982153
-34.09190200688335,0.0,-18.271306792020493
-13.705955162918858,0.0,-43.71653219348758
1.7250782601500376,0.0,46.460502057473406
30.23575725787856,0.0,-75.3663870851455
-40.425621323859254,0.0,50.40754781780377
47.4750522639331,0.0,81.71081448369486
-80.80689798465394,0.0,48.51215034696029
42.9241721492237,0.0,34.55675700135942
60.139824858750714,0.0,17.1379808815284
-32.64726978988266,0.0,37.48174158774684
-22.342387259971787,0.0,10.275670290091565
2.1169092592489154,0.0,3.083344095125142
-12.760853686336487,0.0,-2.984028366296615
83.0535683397593,0.0,-41.406020300480535
9.49937037266315,0.0,80.8166093393913
9.347705133097007,0.0,5.80187658644233
52.69807689415104,0.0,70.9484629652697
52.2982762765458,0.0,-76.8330420745788
58.81397940453207,0.0,47.06996777116805
-33.15336566074287,0.0,44.384922462900875
1.6967866255381256,0.0,-27.096197418842294
30.497139607189833,0.0,30.917204115592252
25.51795191235291,0.0,92.75305665509262
-17.104352413948686,0.0,71.23179200438544
-83.99640541461885,0.0,-78.78990286713284
-17.504638865309524,0.0,52.244468317349714
-68.17966278913687,0.0,35.42899643084405
93.33738889480787,0.0,-19.748580290906048
-23.636598199559263,0.0,94.79360880920154
-51.087297616887994,0.0,-17.68751472139317
95.72287466912242,0.0,-20.29295714566097
-69.18462117926326,0.0,-5.444860096661787
-37.91844244223392,0.0,29.030383419213674
64.28045797163745,0.0,-58.603797821205696
-60.7775990975497,0.0,-69.52073358276301
-45.26905899573198,0.0,47.7118943426379
-34.066445320971575,0.0,13.144736940739076
-50.36388518071416,0.0,93.81029793594632
-91.73114381492378,0.0,-97.89672777859701
83.39528482196572,0.0,50.43799484020003
-4.897976370459882,0.0,8.718803378368222
-49.4247581947649,0.0,82.47225994641174
-93.15739258117547,0.0,-95.94977103308385
-60.22084519298756,0.0,-25.827123236390825
-46.49925694991847,0.0,-65.40752266585208
94.88295348481243,0.0,-52.77084947419042
19.436612632894704,0.0,58.92025292103597
8.044461979084847,0.0,-57.4706817989026
95.42002325764074,0.0,-61.73518808128045
66.16972673132547,0.0,-7.838639416989815
-33.44602829557671,0.0,-92.65662226315068
24.602162570476555,0.0,54.99462197899763
-44.67984093951613,0.0,-21.875086897718
-79.93780026591818,0.0,7.879307116270018
16.03217481413899,0.0,19.37837749743095
70.88777139498211,0.0,57.70742803244647
42.335372088136516,0.0,-46.085490095455135
-70.74644949093697,0.0,-2.324422693086496
99.89629347183657,0.0,51.08843072956029
-62.51830155027821,0.0,12.245584785569479
-54.602671371156276,0.0,-81.0723617699084
-39.64744138678045,0.0,36.902471925165344
58.251076875988005,0.0,-68.27283154164894
-26.481753678185914,0.0,-51.72902258376217
-68.67489325161876,0.0,33.16859374098019
-68.30209896065489,0.0,-33.982696098856536
96.22877906011954,0.0,4.867741297118945
-64.89121312963483,0.0,-65.24634726490406
-77.79032917359848,0.0,4.849160025348214
9.09030810499305,0.0,31.348287758838367
-83.29006665703763,0.0,13.583111074152592
37.58222024452863,0.0,16.181729988125383
-89.70956999080397,0.0,87.47454044425491
-97.78268470927736,0.0,-22.507136334702356
51.11247169237368,0.0,-45.73176238446733
-42.37002558172333,0.0,26.39382231787518
-14.823718388971496,0.0,93.5370150950144
8.236019740691193,0.0,11.634056676072825
-56.788242418591615,0.0,48.794993380274455
-71.380999270279,0.0,92.61037453752844
-87.22691369052609,0.0,68.35014862517271
-5.436698735353988,0.0,-69.52510093351792
-64.05650575965387,0.0,-39.33512686945856
-24.513077242702895,0.0,1.0690495286473103
75.31465752610768,0.0,82.98517618621521
-26.428812917181766,0.0,35.956466653094196
73.47342771237805,0.0,54.40944136374553
4.531755476531497,0.0,-41.527691225617026
-0.1020498182751271,0.0,-97.91768383755934
-39.06018473893684,0.0,19.410227269400224
-15.123324730894334,0.0,-9.160335955846003
-87.08148086487435,0.0,66.85265500590108
0.9363719181300871,0.0,66.65996424889362
4.119982457710912,0.0,75.2045419339734
5.787895949164514,0.0,-38.87636722431261
9.754338565147775,0.0,49.87366618983688
54.172232820815616,0.0,42.98133547077807
25.421313404349615,0.0,-31.784252707246385
41.62924940883552,0.0,-69.49869663403518
22.47030676495833,0.0,49.32732913209574
-38.367149973046324,0.0,-58.89373433229837
43.21924215362547,0.0,37.5695093533826
33.30487995043735,0.0,57.16074352253605
57.06775821293869,0.0,-78.54605748993204
59.71244305784147,0.0,-22.838266183378163
-11.986733621519306,0.0,61.92432850092252
-71.29434386332692,0.0,70.84660115606712
81.22332304947979,0.0,83.2736714510229
-75.7743918012477,0.0,87.92360815295483
26.03966772162828,0.0,-10.688802020443742
29.739092309685628,0.0,-80.27486361919097
74.46085633284018,0.0,47.372531923806946
34.97895723775995,0.0,0.20045317906060559
-65.94226096578024,0.0,44.617453444029096
82.65456740057725,0.0,68.06677750217402
22.684819628574886,0.0,9.04671105700045
-2.9204168703516786,0.0,-6.8464496130453965
-67.85634024548271,0.0,-50.337661116736435
-26.767845459184596,0.0,69.17073386668969
-40.62774050433205,0.0,72.02017640035514
-60.75762226335482,0.0,-30.61630297731497
81.91833623241148,0.0,18.252177828310355
93.01120064997401,0.0,-63.55976216601326
-23.927040968110745,0.0,23.888555312308977
-96.00434893216213,0.0,-69.30398673751473
85.93661220778202,0.0,-10.831131661179214
-75.35650154709818,0.0,-74.76517687281553
21.002253239651107,0.0,10.108471002212452
69.81547396925819,0.0,42.135018956730605
-20.786903191704774,0.0,-31.912734013994744
20.8412051352904,0.0,31.045681160458173
-28.378578480443245,0.0,86.1900393588829
-39.475780966584004,0.0,-59.46039731227746
94.43534325270203,0.0,94.07946047443346
38.41545377675576,0.0,16.26698024776471
-18.54820390551285,0.0,-17.537324534615934
-1.1516690358830142,0.0,-48.777809672815955
-60.157660915808954,0.0,23.807964670606456
56.771908454564446,0.0,-0.8577560623652318
97.24367793869806,0.0,74.0469105955559
-7.819233192149764,0.0,43.44312095282621
-32.423024369273975,0.0,7.611481083460238
-78.00307929372828,0.0,-7.355823934340429
-24.456115838155103,0.0,51.37684189672178
6.3995314078548455,0.0,29.016864192442416
-30.921234128808546,0.0,-63.759307229381434
-19.61518822613069,0.0,26.052087600631246
-75.15919033433953,0.0,84.68814212767846
-14.673498323624576,0.0,-81.28433813790903
-70.54104765837224,0.0,-80.50133028222145
9.548503025389845,0.0,-8.981343079818242
-93.98977882414107,0.0,-51.041500714155084
87.93849333385535,0.0,7.74283687849827
-32.17346077465548,0.0,-76.51481082995704
-63.745875136095506,0.0,-59.555190166395576
-87.41499098989185,0.0,25.995397358384082
36.57927804394469,0.0,-23.10355086301936
71.97341130250075,0.0,-12.58175745022674
43.671416489790566,0.0,-83.62936185801932
65.20472042023054,0.0,65.75815956201708
-13.42417948589389,0.0,19.79627771803546
-97.85275575666842,0.0,-28.703733291240518
-49.809077664698684,0.0,66.92423159887603
57.45953236192304,0.0,-32.10861147102362
3.9171221793701845,0.0,-98.58924179398997
15.012216768036343,0.0,-2.089917600161605
-52.77120856853186,0.0,-27.22176641236645
-54.361410189986245,0.0,-6.826273495155388
23.71425189698841,0.0,60.63297175487882
-94.17162248524687,0.0,99.29190225805054
56.97508707797838,0.0,-64.76880937460035
-89.52403163313168,0.0,35.40114688322056
60.6143448121237,0.0,58.037611949100324
95.98355927983978,0.0,-95.02732853623753
-91.01469969265,0.0,75.18942474942449
14.13249795142994,0.0,62.562643148929475
-47.4133481249895,0.0,39.31933185367472
-24.636605117573602,0.0,5.391443271616774
-95.8237782233782,0.0,4.043235597644253
-23.353172748215623,0.0,11.320706752789334
-52.70928763172522,0.0,43.988893064339
-47.373686248414344,0.0,59.47115116331313
-44.94262316348871,0.0,76.52655460643597
-5.3931565455187345,0.0,97.81027657669286
18.4640700026563,0.0,-63.111297177366176
86.16415802622092,0.0,-55.245598785434844
39.68408064893607,0.0,-2.815607188079668
15.059127219229,0.0,25.16342553206197
-76.00029737860122,0.0,0.6209820459704806
7.273940303197364,0.0,32.10257082228135
17.74715113754686,0.0,-30.508812147116416
-89.47991462587724,0.0,-7.662356394238974
41.909126558394014,0.0,-25.573264702575475
-11.077845840039283,0.0,-71.25931502315352
-55.04895352503452,0.0,-43.549231767209946
-66.91716373985903,0.0,-8.327704271335408
-4.10023947728007,0.0,60.45182711722826
-16.574134541093542,0.0,-9.928828609987596
12.41608015437591,0.0,5.499085594033782
6.215218764983119,0.0,-86.28025293153937
-65.85841255652215,0.0,-14.571411263973996
-49.304931621833795,0.0,19.165735203170314
46.47742263077587,0.0,20.8524177827074
-49.0632843147002,0.0,55.10289812175149
18.601380270026237,0.0,80.2260003788629
22.334932683008116,0.0,-32.46340681503609
7.787624728260704,0.0,-96.91576794768702
-93.04723907053284,0.0,33.54940600346528
-44.38994339610929,0.0,-21.460874039963173
-39.10724913058313,0.0,63.58138000594734
-83.13841781400308,0.0,70.49709215187116
14.68046725537701,0.0,-15.111828987231693
-76.43888017987912,0.0,65.14516051119097
-0.3927520292382728,0.0,-83.94113286230555
-48.81371919636732,0.0,76.97830367198912
19.992297547784137,0.0,-58.535339470165184
11.426787439996842,0.0,-37.47090298276301
78.96488690494581,0.0,-97.33387462297286
74.62610489621171,0.0,61.60826883003462
46.76832301080509,0.0,-0.9545519396500007
-35.021689698948336,0.0,48.33273825455786
-9.65399409611787,0.0,-58.592064951025435
93.1819982630641,0.0,-60.092851413953156
26.727773855170955,0.0,97.29583898292493
-62.844419570507334,0.0,17.200357649575388
-26.115978851431215,0.0,13.229817534280489
-43.878081145967066,0.0,26.99158240709328
8.046760710515032,0.0,98.01884825486712
-18.503017551923786,0.0,83.14836243519633
-95.63708881975778,0.0,4.955159172665507
-51.13065965399735,0.0,-15.896228689689323
64.70023801600655,0.0,-24.4299341590524
-98.3100707032973,0.0,-67.68822690573829
-46.19225170020109,0.0,-52.48857026739029
48.73839449850384,0.0,-68.45189812146556
33.394912618796546,0.0,-63.28026927342651
-49.66412999795094,0.0,18.229856678376738
3.734175978592902,0.0,63.46012673649166
-40.48199477843368,0.0,-39.92351441197977
69.5887599132547,0.0,-65.00980646912433
55.510078900821,0.0,58.682040696147986
36.0391802720201,0.0,-9.158846761985126
-51.355635064746394,0.0,-43.73605546768332
-56.3128068561503,0.0,50.21858993366952
-15.314405117080302,0.0,-93.07712454228584
71.86795662951059,0.0,69.29115069365432
-45.42119204015974,0.0,84.15276717414865
-94.82111364532851,0.0,-71.3540421754144
99.11385467031141,0.0,-55.58913290579341
53.06741006216876,0.0,-23.31715842438891
-36.98691907308016,0.0,-37.388760417189964
0.6229869443962279,0.0,-4.565446367312634
14.42164893561573,0.0,18.958487454657543
95.6205851797988,0.0,94.00201294191551
-72.3612269876654,0.0,88.922262291968
-47.33490331877382,0.0,-77.96846080384199
9.319971120390115,0.0,70.11995124860789
28.921231492563333,0.0,-32.58128171933713
18.035328150130816,0.0,67.37939705598478
10.777688426989258,0.0,30.196531656773125
-39.87510091929678,0.0,35.761640856907356
-58.66535574629641,0.0,-36.30592115977234
26.69883162523873,0.0,27.62359969422854
-75.78161474840462,0.0,-21.844642962477202
-88.32468516551488,0.0,53.07425800787029
66.53325910310497,0.0,61.222065463074074
-12.375281335145681,0.0,16.93040278249861
-6.95506559624854,0.0,18.70635291973859
-15.399494938802638,0.0,-67.07243049406266
18.113450793645985,0.0,21.794683561265956
-36.70182134844995,0.0,19.246879371886557
16.388855259881225,0.0,30.143218159227736
-5.030575158509309,0.0,30.36150977360046
-94.5115325477037,0.0,-51.38000812341667
-50.42175268307797,0.0,-89.81269258740477
66.43837773270073,0.0,99.28934213401963
-95.15537135863809,0.0,89.12711002063348
-81.68880357112903,0.0,21.534134782461166
-12.776554717438296,0.0,-54.74446577447084
-49.802597890357646,0.0,49.4809904875879
31.994432935924483,0.0,-51.010398847436946
-98.82426650300144,0.0,-15.312716102827464
78.04089694548527,0.0,-50.733511104654774
-93.26426993932495,0.0,15.116729991123155
45.99039482113961,0.0,-66.24691302670995
-23.536531984131933,0.0,9.434004063629166
29.127821597285013,0.0,77.49147780758071
-96.48186981221974,0.0,-42.276155484308894
-8.129114664239543,0.0,24.81774353185343
96.71245353201616,0.0,-2.8472740392323868
-16.744293902460523,0.0,-3.913712038860415
-36.20800654844005,0.0,-16.027877065603086
-75.84500077096169,0.0,-10.282878729811047
29.95510707454974,0.0,6.063861600147161
59.298410919841935,0.0,29.960811583121767
-42.31860326212669,0.0,74.04749472541573
27.197519632983408,0.0,37.56151841923081
-27.6019154816452,0.0,49.9541384436469
66.72583108635091,0.0,-82.15023659838722
36.7379530314397,0.0,-95.28298602429125
32.41569343441309,0.0,-36.01001289269647
20.126225094403438,0.0,-25.115312190412673
-77.96154695494472,0.0,32.53441592809065
57.34315850229397,0.0,42.452642272819055
2.120715340648354,0.0,-23.851085219854166
-27.557727175231012,0.0,29.668867950992784
-16.15968071599397,0.0,47.409077631375
59.950646350598745,0.0,-17.629884254827573
-85.11680518989745,0.0,-88.99933711990965
-25.969618390996107,0.0,-17.579379771334448
95.60961026685005,0.0,-75.52971925241653
-17.092825683644165,0.0,-43.748854170599586
37.72035148041334,0.0,40.41797656158172
20.950113892723596,0.0,-19.574099061737982
68.84205164383602,0.0,43.71659913908943
-33.98380329176254,0.0,-47.6039561379395
93.96884409922414,0.0,20.40274752392823
3.11546080520892,0.0,74.2140481845215
96.95092676310621,0.0,-78.86296463481067
35.86020191370489,0.0,-53.362699671999934
29.210651591163618,0.0,-51.591462768723794
-86.55742484533965,0.0,-49.869340443144125
-9.312315144736463,0.0,-8.569467177589107
82.20143699334372,0.0,-12.23040598513214
76.70399569972302,0.0,33.427673118219225
8.799835265200842,0.0,98.20649138980889
-32.05711936337438,0.0,48.86870547988115
-47.89491967936463,0.0,-4.19917632095337
-39.22213062903506,0.0,11.018522233845255
-31.01575223185372,0.0,-4.0163111721870175
20.38920626980065,0.0,-71.41831078154345
60.779714945808706,0.0,0.8032462573379051
-15.351018022259847,0.0,5.74450907734781
-58.58439505162012,0.0,85.37947110857922
-71.19891256833981,0.0,-61.705939824737456
35.075621271885296,0.0,-96.58136869301323
78.11605274956909,0.0,-14.39933323614614
-16.70901568659052,0.0,-53.343056111782
-62.24571393909982,0.0,-4.1243988254352635
54.647854896036954,0.0,-5.525938560905754
-70.25834452139553,0.0,-87.48437707063965
62.93784357801129,0.0,97.5047324386678
-15.574039931353099,0.0,-21.264156544046863
90.68502812976902,0.0,-17.298891344350015
86.02784952811962,0.0,-46.82300910056852
-1.9172153419070885,0.0,6.2424395348341575
-36.96771829936401,0.0,-82.5022473486355
74.79186039179011,0.0,58.79793339663362
52.84511987445338,0.0,-57.880344320697674
94.80172876827938,0.0,-64.82211464186611
-10.948967600143806,0.0,37.36957529160066
-19.688481997815906,0.0,57.77417758880959
79.38651641158532,0.0,85.85989149686874
31.116118001686377,0.0,-87.6952312057149
-16.550269127870713,0.0,91.28889434870348
-55.28906720424717,0.0,-34.525376335788366
81.81292956784438,0.0,91.58852910506818
73.40960460825023,0.0,-3.7247943954054015
8.417455864495208,0.0,70.03233985415751
2.6058624651303406,0.0,-39.9348318525853
-3.1556024386116515,0.0,-16.215267314072076
-12.048347003271397,0.0,-27.48074693571645
12.382878269075173,0.0,-4.347718647427255
-0.5828964719977298,0.0,-1.3312730101724224
-85.93878474189982,0.0,43.56133765866554
81.38638425932133,0.0,-6.968923698388142
62.53449221386116,0.0,-10.289214171415509
92.95161817832856,0.0,-61.48701126721207
90.53877241126786,0.0,-45.04595307681895
-17.26163454856193,0.0,47.83409425406687
-23.71819885403661,0.0,-35.23654821446479
-90.24963298238508,0.0,-64.68936457791169
-43.694429644040405,0.0,18.572400309784108
32.597910688414565,0.0,-50.10476532798961
-50.50575190926092,0.0,73.04197994332378
-63.92035935875292,0.0,-2.3294851309542706
37.003773495471734,0.0,53.43985446300009
-72.33011948321793,0.0,39.93812266460367
51.90362089117963,0.0,21.555302930083837
4.078937728282084,0.0,-53.91714604317568
13.041266810382742,0.0,-75.8363085889547
42.78979338691942,0.0,-4.385090934850471
-0.955788142896061,0.0,11.992449338946159
77.21859258735219,0.0,-30.280644217391306
80.98349752203903,0.0,-37.529513628543185
-55.16242665346761,0.0,95.0984012794236
-71.1839679767115,0.0,27.212823735705904
61.146133250952374,0.0,-51.745612325345746
6.567148979035277,0.0,-60.82499489731015
18.332414036423938,0.0,37.66622573958602
-39.60502980116147,0.0,14.956114105733517
28.546872220460873,0.0,3.14831556169767
-60.96610609597137,0.0,-44.22084428618188
26.113235085864023,0.0,-56.87188317647084
6.443368514877923,0.0,5.3373183220554
-0.13349339806721736,0.0,-29.923531211320338
-40.31909949146169,0.0,-10.215374782946881
-63.90461079678842,0.0,-16.00485982710847
-29.104039879021173,0.0,24.586828225509787
22.111740567097797,0.0,14.505607767563228
32.78596378922726,0.0,-95.14301520669677
59.568825992813466,0.0,98.63954369577368
-13.142640705540476,0.0,56.47848748199621
9.15427274851002,0.0,3.848306065015266
-63.62199240932335,0.0,17.048559824657797
-56.10381390470638,0.0,10.932826754524621
76.2746041748493,0.0,-14.4015953534364
2.979507679177256,0.0,38.347766414126674
42.757698624188826,0.0,-5.33828586799118
-44.517510010729126,0.0,82.85964133624665
-59.63072218145534,0.0,13.426041245887689
-90.3003555672287,0.0,73.01259490769166
-89.77274900383617,0.0,-33.337199663311004
65.45334193255637,0.0,-17.415242405871172
-43.57407912957138,0.0,43.56380999053501
-23.54911519061375,0.0,26.956913460155285
-4.014029286898336,0.0,-4.0038270636044535
-77.00612989586448,0.0,-5.982789914973717
-37.032932263266204,0.0,40.35451501571444
46.53778277886717,0.0,54.61094273393786
23.2376881161275,0.0,27.714082104282223
61.554980347912604,0.0,-94.72690506792455
91.27880981813502,0.0,5.003522104823764
74.97583447050857,0.0,-83.58006678779284
-61.83776750860741,0.0,85.31036631583872
7.112803609511007,0.0,-11.467805511132365
-5.3369003456308395,0.0,43.27023056371068
41.731672967779815,0.0,-46.22632125133375
67.42357016691211,0.0,-0.6177857414507554
19.502499807751665,0.0,25.696549629851468
87.06839841073577,0.0,1.4482973528990175
-30.849742973143872,0.0,-83.55306447117307
-52.392299706720245,0.0,42.12668298356385
98.78858357270008,0.0,81.36181556934665
-97.40975132586452,0.0,15.067393748060335
92.3870529107015,0.0,-94.12517286240309
-84.51874066901941,0.0,-17.856693643832592
-67.43620477769409,0.0,-48.280016242770486
-68.55226006091432,0.0,-40.13738197854944
87.09854529865683,0.0,65.06098879592115
-84.47736222837464,0.0,61.18397355838925
-63.007572001818765,0.0,-22.33356783131326
2.7117424753486605,0.0,-27.436322722383515
-90.85222124732954,0.0,-43.19097091566776
-4.300756358627556,0.0,47.046245457139406
-11.540827620323348,0.0,45.488553395626376
-57.14139058315919,0.0,19.589612041124038
-8.652606002956228,0.0,-90.57923506640296
72.82702105117575,0.0,-41.869227288408986
72.40772222011745,0.0,81.55277306322071
-98.99885489375177,0.0,0.6491528295723624
50.765115271542314,0.0,-1.3764146164136872
-50.81834860797855,0.0,-19.254555205171908
46.01842647714343,0.0,-33.554923712902394
87.928122297555,0.0,80.98421757887803
25.313906379379535,0.0,38.45487504349758
-28.535298367187533,0.0,28.506915872044114
45.66649314703772,0.0,-67.18876382850665
-51.01649431849076,0.0,-6.492474778480196
-63.31507371941856,0.0,66.36680851847721
75.66203101437914,0.0,-74.18718172679473
-1.2935953550250472,0.0,33.76415673769882
-43.492446842599016,0.0,0.6634174479128506
15.781985169043523,0.0,-23.878231920841124
-77.26999768811265,0.0,-60.82686468540736
-17.10059341810572,0.0,0.48947128227439274
45.33158215353941,0.0,-16.108875302528578
32.23481464404206,0.0,82.10718378229066
41.92104521355496,0.0,1.7407057428247077
53.608152582505454,0.0,-61.961953292442864
-62.87690281952937,0.0,55.590475706559786
-64.10999832478868,0.0,12.245491530521473
56.64653824746155,0.0,-40.54005459637976
40.974874149949336,0.0,73.99154529868052
-15.079079272338166,0.0,-86.73477517781232
-0.03963180452762238,0.0,-3.347911906245805
-2.7123506657825596,0.0,37.51634070269637
-4.061506410174856,0.0,-9.106788393055485
-3.5353036674332676,0.0,-10.124993344660783
-5.978449540459519,0.0,50.669981324456984
-0.03921991487851933,0.0,-35.29425406339162
-68.9976409642573,0.0,-24.457868716757034
-18.321809478126205,0.0,22.747908545462057
-17.132775722548242,0.0,-31.31939973276983
-98.59686406104457,0.0,62.788140916563016
-83.1537773804436,0.0,87.03866236274747
-78.41347010849753,0.0,-27.74667910511589
-25.405135156982965,0.0,-3.380946731955063
-87.86570754942503,0.0,-29.756178431444948
79.54883199864636,0.0,75.40008700580924
12.121807504829714,0.0,83.35429571460284
55.411806452037496,0.0,-2.481739622097848
91.14984760198989,0.0,41.582180393145165
1.2767245246736303,0.0,23.51096568367593
-50.99874086076227,0.0,58.65271141343433
26.910778065670023,0.0,59.40677433385232
51.670941616671584,0.0,-32.25079732572968
-56.35338879415136,0.0,-55.28876184155159
-64.73957697959929,0.0,6.597972064563826
-35.16241310524924,0.0,93.01260072710208
47.60358850193728,0.0,-2.8760061871004154
4.248896877351287,0.0,-72.07474159136439
37.97858475369667,0.0,30.465366591615496
-80.18954925164417,0.0,-21.05120890060529
-99.37038833318657,0.0,45.57547360543315
31.080076420748714,0.0,55.686188152838575
12.37370295087279,0.0,67.39422560827845
-63.66915171115565,0.0,-30.12479477122766
73.58486207851816,0.0,-5.383773163064008
59.80679963943606,0.0,3.6045730107787035
-45.86834638354056,0.0,-10.87865179571784
-6.1359981185243555,0.0,82.23164527231458
71.1107752022751,0.0,-43.20786100773083
-49.52833203235139,0.0,11.727597264178028
-1.648615875627541,0.0,-43.49520211004979
-56.16473041235154,0.0,9.869224085028092
-26.29062139738796,0.0,92.8617766001968
-21.163044549380746,0.0,-74.82429309397006
6.961448045542322,0.0,-72.97999519720246
-56.82499328267772,0.0,75.74184629278395
-99.66235872261808,0.0,36.04191939383328
-32.95401732098228,0.0,5.113440049878147
9.418441833239962,0.0,-79.58134673981061
41.01151780602837,0.0,-77.00304992591379
-18.868368514541363,0.0,67.32429538908772
8.969306043260001,0.0,27.024860471753364
52.99935700189974,0.0,12.328287124120486
-61.95457854507869,0.0,42.14750152168559
96.3942752087986,0.0,45.2233279251221
9.33759456409268,0.0,82.0750496008885
79.73381777479894,0.0,-23.61830206650345
-12.319391560596141,0.0,94.74818967547122
-61.21608880615015,0.0,7.960849392239801
83.71026791558765,0.0,-95.20692948623004
55.713300505829245,0.0,5.953139067080389
29.944061251394988,0.0,33.679132999692015
89.93710309493248,0.0,-46.267783758353545
9.43643243413755,0.0,25.696882254890085
15.922177676655105,0.0,-35.03821935817002
-68.89573241240747,0.0,-8.131437469631928
-41.64088163320265,0.0,41.167234138530986
32.078066015901356,0.0,9.570049763161641
-3.6018792136508653,0.0,-13.888923992338551
55.4615895721576,0.0,68.75728989447303
-44.28117371077997,0.0,3.9156888419788234
-47.86170705518369,0.0,52.0754591089155
12.368771040761766,0.0,44.56419436080078
-67.33486278163944,0.0,-78.35951373662779
5.6005092390542455,0.0,-18.302422298227672
35.15965207501944,0.0,-16.78505674651137
-9.179453632505997,0.0,19.36222880166372
39.12815604789153,0.0,7.485202346596011
54.10698014504195,0.0,-9.859873967005381
-51.262198002815275,0.0,-81.06857792840451
-40.4304297403186,0.0,46.54393038281829
95.22855864162713,0.0,36.67817026800019
-12.898701471929222,0.0,-12.666199019662816
64.55070265880684,0.0,-14.611666537470413
12.85471627528062,0.0,-5.62524351079668
-57.220468654731214,0.0,12.62759376770238
52.53447310724404,0.0,72.16644712218294
-55.51142659605014,0.0,79.74559900037534
-7.893524268575981,0.0,-40.02233069818642
-82.56681897757744,0.0,69.4752521195435
40.675287816611934,0.0,51.52030139315664
-68.78159598127583,0.0,81.96381255650137
28.164227993655594,0.0,-81.77805366400386
-16.57047516439732,0.0,42.05013214362674
-10.016384284146463,0.0,26.592746391575872
20.801294433985127,0.0,-15.275577607145982
-56.17036867277784,0.0,27.097551782131124
-17.047864839359057,0.0,-3.7387668920717934
63.449937269373756,0.0,18.24876905677504
18.77315504173655,0.0,-23.291953982818427
6.755018045174868,0.0,40.85882182744173
3.0029005278563377,0.0,-53.99243869760527
17.448637080884655,0.0,55.37934276245616
4.318560990435913,0.0,72.12072400715226
31.594603948471082,0.0,49.99845022917986
54.94405129339375,0.0,61.231147869313965
-9.382843447973134,0.0,47.69082089330659
-64.2675666755778,0.0,-19.48539801125533
-46.99269609834384,0.0,72.55523059519595
54.73866207784636,0.0,-87.2683913662121
22.02397045524517,0.0,-20.90264265361809
-54.59537201167309,0.0,-66.7633949092458
-64.79091929258483,0.0,82.60390159500398
-50.091916837191285,0.0,90.74882659201076
-11.400326528448055,0.0,-24.935519120674396
23.3198293056778,0.0,-48.055880976250506
52.69701382155117,0.0,-10.315428982401242
95.96377534245192,0.0,30.302752761957397
1.1796306260115446,0.0,74.00552299967345
53.11495450787357,0.0,-99.90988819027419
75.00628586445639,0.0,-6.292012633495006
93.11230024805623,0.0,96.62007046334247
7.181720365377597,0.0,27.082855547125728
73.05589616674547,0.0,-44.65333939795942
77.36826841078769,0.0,64.74024883407961
95.05611741131814,0.0,92.73196927388537
-0.8982538425413229,0.0,19.501581679875873
-94.31493768428119,0.0,99.51621180410183
-48.49038341473685,0.0,-12.603517510236518
-88.14452837857829,0.0,67.37433574168963
17.63249976799304,0.0,-88.88167641911772
-54.03760527180926,0.0,-44.571629600687075
38.1571197168492,0.0,-95.955900870855
14.948425094007975,0.0,96.54742308747592
66.0398006616993,0.0,-0.15525287897812434
-33.512616731153614,0.0,23.061079740159894
-37.339829386178685,0.0,-70.25626463604986
54.64513457086267,0.0,-0.19926318579126406
78.33538513464863,0.0,9.909959143026942
-80.17884510561079,0.0,14.308321369858737
-20.416058846432197,0.0,38.15902108969169
12.672569343652954,0.0,78.68044729299886
-56.46398708524553,0.0,-12.269245160112694
-3.0475612595559367,0.0,97.97816846629878
19.98384737446794,0.0,-87.29169709690831
19.34389796008555,0.0,57.48387074491026
85.60871151788415,0.0,5.291120747608411
-64.86497699448636,0.0,10.925797566802435
-16.42319982713783,0.0,26.608129025851486
40.701773082934324,0.0,49.98338239992992
-35.19963291902399,0.0,-78.17780102811402
-2.4117797325857415,0.0,-60.417284963639474
-72.85700822442885,0.0,-40.91560006618559
-1.5347811284945474,0.0,9.090552881833917
76.81519511253224,0.0,8.260684073154954
-25.661432012716656,0.0,-68.54692447431975
97.22551561303499,0.0,-91.71276500744597
67.05057058333509,0.0,-56.04923256246577
-44.568624746892176,0.0,-59.282435880595244
49.65142369148896,0.0,-86.18089466079176
69.26116158544319,0.0,1.7515284743528117
-43.210914096991324,0.0,54.65450036429599
-39.39988403552155,0.0,44.3066983096643
-78.24350913013647,0.0,-12.61971541788483
24.76163988041335,0.0,99.28566755255731
-16.74655069361656,0.0,38.883906328186875
83.68390290469782,0.0,68.61504602680331
-41.177753546290475,0.0,-3.9098889136440844
-84.04821418674618,0.0,-64.88075892558606
-33.74218058542035,0.0,-38.82621998075039
30.682044167497573,0.0,-86.02703337147543
74.28995378487542,0.0,67.93207729508171
68.41358495370721,0.0,30.418750811658246
-63.9436527282999,0.0,-91.56403745385666
64.08302780787471,0.0,-66.57591480755859
82.01751595075972,0.0,-35.97343296617598
20.40796382206882,0.0,23.188491817809584
-62.19523561807577,0.0,-21.181599621541256
-71.53176501476909,0.0,13.674625161495097
30.6118141942686,0.0,25.283726561481295
-43.21641351646361,0.0,71.14649058717166
97.12093376262,0.0,-58.169981444952576
-40.06730457433158,0.0,13.99279802307483
-24.11261117026777,0.0,74.9117976757764
-43.12066981674986,0.0,61.837456540054866
-1.4754789168494156,0.0,-65.75556015922007
-57.0089078072172,0.0,-42.406228632486986
-35.50091687871396,0.0,-67.47219478204542
8.574788156370314,0.0,-15.257080664256339
-1.4292891804541559,0.0,-26.918346809606064
-18.579486768060985,0.0,23.917790508882643
-41.457244779356635,0.0,-31.141934682717253
44.71087187599734,0.0,-5.077937335014191
95.14795913497751,0.0,-85.68421788693847
38.70835026461486,0.0,45.19008976048623
55.889086904908666,0.0,-95.0733345812537
13.73812968728148,0.0,61.01569000024357
90.25833999004902,0.0,-77.50987165682052
21.32689678138029,0.0,-75.61643621713264
-59.61365106406246,0.0,-87.58368094481935
-47.53758193188188,0.0,92.15516550933597
-95.98255158868942,0.0,-78.9116113830683
-89.92910127439147,0.0,-54.16523878941142
-0.0009812391305938568,0.0,-2.740347007160239
-4.524442302246566,0.0,14.675523905778162
9.144388657791621,0.0,-18.275802779398436
91.1038787659919,0.0,99.06193279866432
-91.85358356991492,0.0,-37.20901838712083
32.264629302296626,0.0,82.29667174093392
6.31219469681073,0.0,35.971917074551726
6.405798865213108,0.0,8.160848622066794
19.429995580184258,0.0,8.491114921198836
82.75788331963402,0.0,45.248770840422644
-39.27582338195151,0.0,-15.289197252694613
-91.1302173518269,0.0,88.63852830148647
16.307554440775007,0.0,71.33956664076268
-4.579589083461023,0.0,-28.80331289740813
-10.397391434745087,0.0,-52.31100690302011
-44.21490975732356,0.0,-20.32267814003965
-17.832317356212037,0.0,-29.71728654304834
-84.58252939993328,0.0,5.216545091975737
-92.47553781718982,0.0,60.9001748419038
-50.2573739126022,0.0,-17.491220484539234
47.45730157344043,0.0,-0.9684584729994663
-58.51796287193082,0.0,-7.228412358549935
26.94995773914893,0.0,-71.21448461900857
61.80603565735674,0.0,7.227630789781755
48.86937983820684,0.0,47.45125070332799
56.91892648634784,0.0,-79.50914082053792
-27.924194444299243,0.0,9.88332194792603
50.31295982554725,0.0,-75.03999981103323
-20.627669293363702,0.0,29.21175494206938
-18.894877613686,0.0,-47.38862761171726
-33.70115883529458,0.0,65.86840184757288
-99.4396512654665,0.0,15.287138513544738
17.04399952213171,0.0,87.6295368843754
-21.054343110508235,0.0,74.45073129603759
-18.6964312964932,0.0,-47.26275638305394
11.886829671099704,0.0,-64.25323807825862
69.83741967477938,0.0,-99.88946876129067
-14.560265524556797,0.0,29.211241813935857
-23.916412614842546,0.0,-76.24620941848295
91.01604451469227,0.0,6.940209283947503
84.72861175564358,0.0,-80.22868400701752
0.5941350016304008,0.0,44.6030409888609
93.51885760237316,0.0,2.0521899126162686
-14.411219839271066,0.0,-40.439909071284106
-15.49495564621367,0.0,10.30087957784205
70.06779276652527,0.0,29.75918213116948
97.5332815701304,0.0,38.98188490931199
53.2316728325567,0.0,-97.75584885243155
-78.73650939009678,0.0,-97.64091131632425
-19.831410805830547,0.0,45.777467554050006
-87.54287926447083,0.0,51.65052604012115
-8.260510099023518,0.0,-69.34019352905312
-27.32860546186574,0.0,9.532311254995705
-67.42535649815842,0.0,-2.945819030087386
47.21695211156882,0.0,66.65114544966939
-37.372418209291915,0.0,32.06408121626599
30.719564826694718,0.0,-57.45828994925869
70.77348909192482,0.0,18.57845601523585
35.02654013231815,0.0,16.14784337687788
75.84907222800527,0.0,-48.302259686884
35.215388397080524,0.0,-75.17197695618646
62.42691424786161,0.0,-97.79484212185879
-72.10080346968202,0.0,-72.41048131935574
-67.38373048849566,0.0,-95.02690431767259
92.74315292024953,0.0,-11.4201223715792
33.87477238913699,0.0,-80.31061181021619
66.54907559796314,0.0,-76.47468717521669
-15.182623668821229,0.0,4.99163750828438
43.967956488726315,0.0,77.74664483266866
-85.48499849733122,0.0,-19.416088691310566
-34.15956684793197,0.0,-6.693215904783608
-97.73180651890809,0.0,40.19996774135816
-26.840347721474416,0.0,-28.06869143702184
-41.55119708175374,0.0,33.792455413390535
55.49173876267728,0.0,0.9827316505059934
-50.693264159514364,0.0,-73.39487444324394
89.67310439810699,0.0,31.714370579331693
32.059449640111005,0.0,11.449853345343543
-59.24411279743489,0.0,-80.91035825379261
-54.00945625367537,0.0,-97.94272573573292
-12.266831176266864,0.0,69.67837934951034
-1.9952142340129038,0.0,41.18091469290132
35.53884770885234,0.0,80.86886810216485
-27.62465475573911,0.0,-69.23479528817552
36.58050322589696,0.0,-84.20251728454853
-15.017543617724519,0.0,4.284888056693688
-29.888670979213984,0.0,-30.85949859336906
25.6008177247046,0.0,-41.677133146394645
20.735674460184455,0.0,-6.851868098927472
-36.33238912504656,0.0,-56.13766852378369
-39.1716436222206,0.0,58.41796130340564
74.20911884145873,0.0,10.97371184366015
61.78192863816896,0.0,29.21741134596754
80.33527901391464,0.0,95.91204777471695
-51.80274492167551,0.0,-40.70269176902191
39.16708476631963,0.0,-92.10335400091736
73.7412149186329,0.0,-29.06710547348083
-26.05236522595546,0.0,44.30033656632856
97.72187797737395,0.0,-3.6141531267361025
-5.76067358589765,0.0,93.27689683621173
32.06382479208922,0.0,-80.0225350787574
-75.01004541443274,0.0,-57.31382974759739
-71.27850467393955,0.0,-98.3345912248928
18.340005819716982,0.0,-31.895479154711264
-21.732967004253887,0.0,-36.43770716835835
-52.43644760792724,0.0,2.208649799152805
89.07475973115393,0.0,-33.99614862566986
39.8328506703368,0.0,-24.218237170249516
63.63702261478936,0.0,60.97216676768399
48.73985731919926,0.0,31.189641477858093
53.98218337128075,0.0,56.736034276369
-52.02532643125527,0.0,6.08318392555037
-86.60045185706826,0.0,-40.197292547850594
-29.31921385463782,0.0,22.154006885433162
-6.1420371534437574,0.0,-3.9261794140354453
-52.72372832929362,0.0,15.958768362649378
93.84370544894783,0.0,74.74124603727431
68.01071078410136,0.0,9.472830258030344
69.81048699628035,0.0,48.05426220383631
46.326269630378604,0.0,46.15731508824287
-90.44496036440083,0.0,91.30767497061035
-63.11669985859146,0.0,91.52495807142752
-2.676994699849682,0.0,60.886348724533256
64.6700154660654,0.0,-43.96944248931452
22.442851218795536,0.0,70.964732326923
-49.36480052772726,0.0,19.86496669495834
14.309892226321946,0.0,-91.32115454905306
41.50230760414013,0.0,-86.28785738880119
-72.98556612546953,0.0,61.354155082464445
52.65463160992658,0.0,19.625853930090848
9.909303458463855,0.0,70.89605655041596
-49.41478845938796,0.0,-7.8931372771682025
16.960385921433936,0.0,-63.39683831844408
7.755428969927147,0.0,17.702739423697054
78.79096667060057,0.0,-64.16073971822782
38.54796459010632,0.0,-65.12118027858929
20.89251015362502,0.0,-62.1047074231948
74.36694289103954,0.0,-20.60080408588986
-86.56029434281372,0.0,62.0096726609216
-46.42683527770915,0.0,42.01215046870168
9.058673790235128,0.0,-12.641007276516822
7.676718413189591,0.0,77.6629975454702
63.01066170185698,0.0,-41.426977527736234
76.82934517735654,0.0,-47.42865212173024
-30.255184792229144,0.0,-8.388730821658315
52.37751643486794,0.0,24.555946268925933
2.4709784428537627,0.0,48.49673093787864
-20.465798109389265,0.0,-59.31475550120319
-95.9496349289892,0.0,66.38342037765857
-35.52735437324892,0.0,-14.583949779476098
0.8315020723405773,0.0,-53.43346511248328
13.993676138059092,0.0,-87.89181826345303
-42.321810905652136,0.0,-86.02500613629374
-81.03297771096753,0.0,41.567735315798856
-46.090189546911674,0.0,-58.51444541955788
55.23342731524534,0.0,4.202587087568766
-38.641305587217886,0.0,14.516549635157153
32.38958705851723,0.0,-75.31059148561665
-72.88913822533337,0.0,70.05797570807016
-10.274880624810647,0.0,48.42121804227168
64.61884724331841,0.0,43.174739080277924
-53.59035421293731,0.0,-31.81254167925603
-49.12832352926753,0.0,99.75452279559622
14.926581522401271,0.0,20.3850431118085
40.37271512869046,0.0,-30.939899720887666
