-3.2084204671228425,-4.920656866598217,-9.713344141351891
-5.243602382765009,-9.837276854017862,-2.6876663811841373
-8.205458871409919,-6.125097631474833,-5.023308577851022
-3.136839740099001,-6.577097845924484,-1.8473317693473068
-5.362398239961351,-6.248837628700718,-8.776237720075521
-4.1309813400334034,-4.773764410928538,-5.632822520793417
-3.6993481647848343,-5.076563595404396,-7.04476412905071
-5.5209763305433155,-3.5079535836414513,-2.831166346521197
-4.073726729341015,-4.597790220039843,-2.029509635011437
-4.915804996520038,-4.932214105071681,-0.3999460310770262
-6.704972310778526,-6.4782494918356885,-2.4772578303644237
-7.129816425780101,-6.047398956280903,-7.987388064547401
-5.427342721859778,-5.3238533801188295,-9.254081508227994
-6.02266201859942,-2.9331438117130877,-4.134557547933304
-4.3916814312767904,-0.9646412167758323,-3.0695577602530113
-1.3867197567139442,-6.1313006547103726,-9.977645604879843
-0.5562262666345203,-2.7284457777924995,-8.43495515665434
-5.475684011606536,-3.688641419772818,-5.983586579408578
-9.92545636947466,-4.704930597053884,-6.936512392484273
-9.22687475720435,-5.2055613517586234,-0.04310515084720912
-2.4102723164906195,-4.361275480520598,-2.186088736214738
-2.9042782323743777,-2.8695934413042266,-9.49450505503022
-4.856754361647079,-6.624346327557535,-2.638649648734514
-7.2730223483589596,-6.915824546879467,-3.6749418701455636
-5.239533773134749,-4.958185286052565,-2.9997155210486164
-3.466951823803722,-7.13201000815782,-3.0146994972144525
-4.259140369973989,-2.962103494424255,-0.30068385934391806
-4.228603261325438,-1.5491072160859995,-3.2787547160337835
-0.7915654175484645,-3.415011163931128,-3.5110486046956035
-6.281916057940126,-6.350953946144114,-0.21741568578342996
-4.380467134017766,-5.466152791896837,-5.510242959749591
-2.649969238773968,-9.402932660416548,-3.8625334068669255
-4.308028830765781,-3.8272877562003718,-4.447758923279223
-4.285817521339459,-8.06847166302994,-4.035558920713196
-4.939458489369492,-9.327676739900985,-4.623829125877303
-5.535802702220311,-5.788731115857228,-0.5764021974515501
-1.3608463210686552,-4.693261465092128,-3.182562372590364
-5.649155392632746,-3.933722878685007,-7.774539635870202
-4.347093609144357,-3.1915299201120395,-6.02650795241659
-4.334940575820916,-7.211416620794656,-0.08634461499643287
-3.4925612018294583,-1.9623979956842303,-0.8555802028905148
-5.950052520660473,-2.380918851733704,-7.5256366564311055
-1.2695552198938094,-6.071889830139074,-6.344984388330417
-5.350649259177437,-5.016170071976473,-8.37635949212977
-6.11908097634981,-5.75118299845401,-7.334186226559741
-4.858690189045178,-4.913004765545504,-7.480876307051091
-9.180673533721842,-4.012830280473142,-2.3522171690631897
-4.749416919879014,-4.803731886567096,-0.5671165015320234
-5.395952431481167,-5.8197769117088916,-3.4890667135525053
-7.091954724855276,-7.876250967593431,-1.60224898667154
-7.960424588882232,-4.87488902389152,-2.5546861636594898
-1.671795488030201,-8.346118824712365,-2.6780377641661364
-3.9946918000966116,-5.052708404613422,-5.957505194869725
-5.02071491392127,-4.989237007831819,-1.505058804156723
-4.444384178899325,-2.6569657860894424,-4.2631090686479025
-5.156209959198666,-4.38813783303966,-1.5757188630939978
-2.2112711236256386,-3.998436205518612,-7.373266148885531
-5.118850973816234,-4.320374957071732,-5.997610968911806
-6.00327928719241,-6.141599266912998,-9.958672555983092
-7.16797920937018,-6.528748554904999,-1.6319090080728498
-9.125857194619375,-6.890523926521837,-1.7923874412688763
-5.416907944490487,-7.608960852544669,-0.17530578201301417
-4.153528037302829,-4.038324180147113,-1.7446954945614692
-3.007588034139661,-4.266639407767963,-3.2848570228006873
-2.0462372286783084,-3.0339883648856247,-4.805963616434778
-3.5325647588247766,-4.57930354249183,-3.0723529302606205
-7.412191374762427,-8.24695315906233,-4.070738922292078
-9.601407709084668,-4.363244955468845,-7.676270698385519
-6.695251814948122,-1.388777412427006,-1.6540947344391532
-4.571206325350777,-6.4168715667819844,-6.079612418732626
-4.536741608726668,-8.692424938235927,-9.184006077907828
-8.192860619633006,-5.119350955048057,-2.5685964602495788
-3.355338350800084,-8.088866255945387,-6.083193599893061
-2.5112412891265965,-1.9031719133087863,-9.767104325711124
-9.1062625976897,-6.944085730217857,-1.8952191386979362
-5.054569686958453,-4.342032828528164,-4.350626972668202
-5.551523906530376,-5.935314559511255,-1.6967999995659473
-4.876501638076264,-4.978371527124135,-4.9671262280482935
-1.1256409622695966,-5.8521192726128355,-9.942111232979041
-6.3841732861631515,-2.75517532405414,-9.824615987224234
-3.1031716511357716,-8.922440133751234,-5.481247776518221
-4.569691574461054,-4.3174652590601665,-2.340264849350229
-3.2373313520852878,-4.947403499170679,-0.13850394043751368
-4.599989788747802,-5.8592360739170966,-0.5932861361806809
-3.5876376554005427,-6.73924794314408,-3.7819717147598704
-6.118744108758152,-8.672675035455237,-6.893528434561524
-4.984589929410572,-2.1867816050294335,-9.685675289220601
-0.8912451627228659,-4.551088125336783,-8.063750462443915
-0.8108662015931118,-2.772479128795686,-4.299524871225855
-4.443089739242557,-0.9630054075455163,-3.6778681266869917
-5.770438405330994,-4.265537658383923,-5.785203852697116
-5.901840266362595,-7.744393040966544,-7.339890199114407
-3.727516133261423,-9.041562713030418,-3.4814042662995415
-3.8862039952538843,-3.5559338939667215,-2.2492560404308315
-1.5555356360325745,-4.269167089236841,-5.203866244714406
-4.083252293323764,-4.267500704844105,-2.8069808883828746
-5.4340911533848635,-8.435103581690077,-8.52938474689135
-4.465887258910157,-5.8037804662645085,-6.335349556908067
-5.03503910360336,-5.024452220007053,-5.201953818756364
-7.9864675168465045,-8.108571772445778,-2.7768973459734205
-2.533660609116711,5.0,5.014946244053873
-2.7779915753717166,5.0,10.814832247117804
8.42731955712781,5.0,-3.7966011414010623
9.157785413913135,5.0,14.92536897597972
-3.9507832073098434,5.0,0.4616426272386338
8.520632088398237,5.0,11.473638830706578
8.940595263434439,5.0,13.378425411417927
10.006657987159294,5.0,13.626734114024107
0.5927783171085164,5.0,7.9952661815953165
11.729608213035313,5.0,9.867626985634226
13.447807123482816,5.0,-2.904229943394534
4.45871226644377,5.0,9.738692693793828
4.833100986867378,5.0,6.501168373851431
13.08202182292747,5.0,9.920958465303642
8.703108241430977,5.0,2.292928116476766
11.406025619927764,5.0,-4.307891697162638
-4.013427311208348,5.0,12.908644231918553
9.108901706334208,5.0,2.861010739012824
-0.5430243298241582,5.0,11.074528151661738
11.415372714355705,5.0,11.29120270488653
-4.227665295698085,5.0,14.581490908844806
-3.653770117148902,5.0,5.816424055955377
14.440184740039665,5.0,6.933035683225624
11.832365491541946,5.0,3.384718779095236
10.826529039447781,5.0,8.099540030274607
13.435225047973468,5.0,0.6852122980040711
10.674126662202816,5.0,12.551577064114415
9.941735267993113,5.0,0.7007621904086765
3.6828145410695803,5.0,4.85253675147672
2.1312697091469928,5.0,1.0615504080245879
-3.874289520510427,5.0,0.2601350213310294
1.8499672657475177,5.0,4.274612366680535
-1.349184787396073,5.0,6.735217257680995
-0.16444304067752658,5.0,8.219806543992949
6.596174596798361,5.0,4.755827563957707
12.015970849813069,5.0,3.594230217340388
-2.8499247596120707,5.0,5.347100300804952
2.769326963481551,5.0,12.90821047470449
7.183806175025207,5.0,1.1738295690228928
-1.5099299952710021,5.0,11.421905649518083
8.010341420543796,5.0,10.36118026433037
13.962473011655302,5.0,-2.1640847704120256
1.4269786017979151,5.0,0.20359884735561007
8.569047522067144,5.0,10.865893300062503
7.65447207085046,5.0,-3.9587118649183246
6.972937646083177,5.0,-3.972272906687973
7.623360789653176,5.0,-2.4322844056254773
0.521712639713023,5.0,1.240773728033174
6.927695905469674,5.0,12.082610603757384
4.084648360077518,5.0,0.19236830506772495
1.3008740819682254,5.0,-0.038170024298262994
4.807899596396409,5.0,4.472172715362474
-3.6690984210828503,5.0,8.720117999209952
11.218982881080386,5.0,2.832370288286743
9.368586008227517,5.0,1.4376118259680615
13.081035067103166,5.0,5.340723487282652
-0.22789983027815097,5.0,12.011765765782005
-1.9090005526115483,5.0,1.3411595474261118
2.465874663729342,5.0,5.005385411329059
3.097988847297805,5.0,-3.340417023194881
3.9559556233445976,5.0,4.774941505245339
9.668736666533594,5.0,0.02462489678816926
9.624083841867428,5.0,-1.5179486731493066
-4.310050195602926,5.0,9.237247575074985
10.810104261168908,5.0,-2.524899862355385
4.962293815647539,5.0,13.761192289209692
-3.450996346467649,5.0,12.930895972481906
6.116792895036026,5.0,12.636391995437744
0.5944673787586785,5.0,4.3734268875401225
3.802210180015095,5.0,9.450936954251304
2.5441441067914368,5.0,1.184034947975368
7.277055929249677,5.0,13.169306666733009
0.3989516047498025,5.0,6.184427610695898
11.495986651336665,5.0,8.042537462851095
-3.8337963971581352,5.0,-0.6563080670675419
-0.3717248320682245,5.0,-1.0911332628918968
6.92353760973169,5.0,-3.441565583699104
-2.4851656503772768,5.0,14.366850002787153
10.659817148372017,5.0,10.81002438319872
-2.4499692601155694,5.0,3.630334875420741
13.009336890660087,5.0,12.93136868270755
0.41332353680579104,5.0,6.447484472228522
-0.6842705995884462,5.0,1.6047545973601611
12.072519547236883,5.0,11.722337890257753
11.29565989788205,5.0,7.1025614653879146
10.758780983859012,5.0,1.8860108841395151
13.142804967003386,5.0,1.1577953327299624
1.52887534746168,5.0,-0.23770884830511996
6.728446124582811,5.0,12.052349617723895
1.6376734453615818,5.0,2.0075319391729316
10.390073776569665,5.0,6.799234565362641
6.909450274730888,5.0,-2.723768781599115
3.4067317736286595,5.0,5.754757977126638
-4.324534919779094,5.0,9.704602578291677
11.98817193938855,5.0,14.339980347181308
2.636321288948311,5.0,9.578423444199267
2.787080861118517,5.0,-1.5813886579079313
11.596236472481841,5.0,3.510264959444992
-4.726181046557267,5.0,2.7729350015099303
-0.2411757494217639,5.0,7.202311831535367
1.3951620207075228,-3.3136346543253845,0.0
4.523574051919889,0.8953882028630494,0.0
-5.086990845454654,3.7517659143461577,0.0
-1.0617287799137978,3.536530000048017,0.0
-1.6707354640379792,-0.27615420566510923,0.0
-2.5537113932502664,-7.953058468628395,0.0
-4.674581003507478,4.752941009123862,0.0
0.6563825156955492,1.7437017873559681,0.0
-5.071594262948417,-1.7966156519348018,0.0
0.92769289907644,-1.3047971907783764,0.0
-6.190922188440934,-0.14489037761785098,0.0
3.7099337202037415,6.35668231300772,0.0
-2.088902001996113,-2.0133879409219264,0.0
6.221152130985458,-7.279688503068931,0.0
-2.0573272425541362,0.7096168781007401,0.0
-6.148540904505639,-0.8400051757888845,0.0
8.635568400458778,-7.8179360390952315,0.0
-6.30936041706783,3.9575984741334533,0.0
-7.667726600110866,6.6387340221437,0.0
-0.011820183169170433,1.813423993603187,0.0
8.441191742371773,1.0927323881685393,0.0
4.0237476895913185,1.10859400643395,0.0
-4.917521873356145,-0.8884527657064166,0.0
-5.872292540555454,-4.774714308456954,0.0
1.6439132349972299,2.202591035880274,0.0
-0.8715364797283696,-1.5520568690699086,0.0
-2.288069755408073,-0.4701201937995859,0.0
-9.97747964476104,3.79857812222951,0.0
9.922518876724713,2.4372761307477786,0.0
-2.274807912026999,-0.7009887146739884,0.0
-1.6997336928971154,4.244692616479829,0.0
7.036279865672281,4.003155498755176,0.0
-0.5877642605430217,5.385672994386352,0.0
2.646139252883092,7.875442616890931,0.0
-8.609845449304952,-4.56781640581713,0.0
-0.8651183487227582,0.6589184462850028,0.0
-1.6417183669114197,8.520727086858974,0.0
9.662792083991707,9.882993315596465,0.0
-0.2832103612318081,7.185858432300209,0.0
-7.645250128586609,-9.885081575950132,0.0
2.5649979376918317,8.115479391182795,0.0
4.208358796700496,-0.8641057894330634,0.0
-5.747299887243756,-2.4021185045672957,0.0
3.535334036835747,2.2283173500826763,0.0
-1.5126961295255548,-8.416307898075585,0.0
-4.954750793271834,8.109466493176537,0.0
5.480386583949372,-2.3379458819667347,0.0
-6.807521637767104,-8.67926649348581,0.0
-3.246617248085945,1.9005493792413144,0.0
8.782820898640697,-2.6379768902271152,0.0
-8.184690956558919,-8.034237335891351,0.0
-1.2760755105086232,9.577738466527158,0.0
0.747191144719379,-7.606037737287815,0.0
1.261140320898719,1.6111223371331072,0.0
0.8215078911288555,-2.1063878407255117,0.0
-2.690598089333551,-1.7595000848126132,0.0
2.3731784177174453,2.405205588125932,0.0
-2.827210916762679,1.0049149615770105,0.0
9.533620057183086,-6.779640063768317,0.0
0.19100282235006188,5.004639590171744,0.0
0.253658239550209,-6.9378367546564865,0.0
-4.8261901012025445,-2.895655838566319,0.0
-0.8172590452916333,-2.250006833703955,0.0
9.3030902470347,5.724600875149564,0.0
-7.76313358775086,6.247723180079316,0.0
-0.3894378347306359,-9.26278338918577,0.0
-0.6693868491685149,-8.342739065070923,0.0
-1.8112406695038947,-3.623790193814311,0.0
0.05641875404786374,0.4106613896791806,0.0
8.627990444609733,7.261911415742206,0.0
5.757953698218662,1.0542221408924939,0.0
4.570057702404874,-7.19778660094193,0.0
1.1644253078593634,5.657470572884373,0.0
9.44075257337785,4.977020529475095,0.0
-9.76198272619245,-8.35454761832658,0.0
-5.628692405644749,-6.411639194739641,0.0
-0.2788436698859157,6.964368746157051,0.0
-1.7322685583054895,-6.539223793759344,0.0
6.445110890481308,5.331425771063464,0.0
-2.254447305784505,-9.17664234660705,0.0
-3.8365829804406526,4.325549917861856,0.0
0.7947121105921205,0.8965282486812325,0.0
-6.48114263641932,-0.8429961843520438,0.0
-0.15208262789974664,-3.620459872762324,0.0
-7.117967539101388,0.07913575760184949,0.0
2.6114519482152727,-8.139529465709451,0.0
5.443597583750327,-6.642643291092471,0.0
6.593433548572851,-8.465124635484521,0.0
4.327614163869661,-0.7255717253156948,0.0
-2.455764946633588,-7.8977801221175605,0.0
-2.874003391673477,-4.431539498278434,0.0
-1.4477083689319956,-5.895912843860102,0.0
6.542806970547118,7.971823403300652,0.0
-9.065271663463019,-2.748926605148187,0.0
2.465925704326353,-4.0786321503594705,0.0
-7.358207081641157,7.26329672811668,0.0
4.508678100620072,7.8069289748856106,0.0
3.2913861795726267,4.075109465795807,0.0
-5.717613095650735,-3.879401074166004,0.0
-7.539946433001509,-7.720881510483589,0.0
