-2.6965076647445207,-18.107095398703414,-82.63825093150092
-10.881580611840636,18.39552877568402,-57.974319478366034
-6.871208124387387,11.09845756902333,3.048276300577014
0.11937466889110242,0.07435676178276673,-63.874164877105684
9.664967919415826,20.10990653252532,12.274421627273634
-10.017226268132994,2.938459466572738,-37.61557778541203
-0.7348847558305641,3.8095895231194983,24.68932334236964
0.07318311036410698,-0.43094543946634084,3.791199728106371
-5.459957198868285,-18.83665366989396,-84.52883194128465
4.562269277712302,17.885159413636522,-83.95315934331661
0.18494546053757766,-1.470177704901352,49.31221170323555
15.493743808350501,-18.64585275179343,57.819912095431434
9.540626408211986,-6.58691879942171,-49.684473276191056
-0.5596022300533504,-2.373573410590523,25.690155314277817
-13.006334603241482,0.998060635578535,-92.96658462543594
18.96358241494738,8.816095726156963,87.35854782454707
-12.162990881102585,-5.77413443774137,-60.13384073786728
-22.099572714147136,-2.2706963385105605,18.14847772276744
3.6513456227350454,11.944225521275861,56.65892117359837
-7.1919616761809255,-5.967629819197304,53.7458652561324
-2.2066272914937928,-1.0584746891644157,29.348132176801066
-5.6458714632894464,3.636143932182038,-24.119138488773547
4.4711476724132835,2.746921027879362,-57.3507097457556
-10.074175388449236,11.083521029372184,37.13554426770786
-5.394230395264518,4.605046861414001,35.622472357947146
2.3017680650560366,7.567862877832894,-62.831950828280426
6.4184388715623975,-7.581703115608476,-43.15569009751729
-13.860107786323086,-3.415626775082811,22.773467150519192
-2.091072703816022,-15.676370304180189,39.68066871487221
6.058788564616233,1.2331575552730711,-58.55347941457691
0.9531689658057553,-11.037858388306164,-2.1570711407786614
-10.457069031657515,-4.392458505645873,-76.77236232496494
21.061786224835323,-7.6743905505404335,-75.18494992433156
-4.802962152149761,-9.73355633789306,36.19694548033756
9.336585151937681,-15.119393087703195,33.94079255844493
0.5484883207005607,2.146866220012757,-86.2623498919178
-0.9353459640795454,-2.1895843392662044,-58.154774371456895
-3.3504016072012317,8.127146943599351,-93.23586357108039
-7.4918988175120855,-8.66322085438479,14.680264174585563
17.969170190181977,12.42601003080667,15.967873662745943
15.442631979662611,14.074356914338821,79.1295600950534
15.306496049077651,-9.109316580625377,94.88456101183193
16.367742129516223,-5.83902177002976,-28.370081375650745
6.069159895239103,0.8529598440384734,57.691111705696926
10.032522682428173,20.803416586354253,-97.64883861386278
-13.996807053206744,3.016031270235882,-60.81545716917505
-11.189555062968365,-0.24052259089865308,85.0855115669039
3.373630000819176,3.016571398460275,22.904853940268698
7.373179763551195,3.3639695088460306,27.36222122262789
9.19617408959228,13.407080830862734,12.678612617242651
7.238925064465879,6.98251631359561,-31.296385166263065
-1.1277400409356815,-14.402738060706284,75.11488874527171
18.950760454902493,-15.309682726201723,77.12794019934094
2.686005500557229,-0.7913043560204552,18.52289238242465
3.83386129179012,7.304161755578889,25.13258472474074
13.29191245561891,12.998573026238576,27.359732906660145
-5.944004522043953,-8.423776133571652,85.96847483943296
12.193322766359554,13.011801537628111,-35.66102566044474
4.466304061423618,3.1672899230911904,-25.760601578731197
0.1500531156071839,-5.380050901659478,40.22015733872547
2.274503517939008,1.3431915276361865,89.66052209663627
-7.4571339075772265,-9.716016731221728,-3.0266636814530954
-4.1494126543383585,4.478134871278704,29.872832264797054
1.3049207770073514,-1.5827157468189816,-50.46454605274936
-2.4747424139419296,9.657713953223048,-21.13024449540757
-4.7492473558239485,-8.167421283117775,-9.417583377757783
3.249545534082968,6.57808162426388,-50.67007019110095
5.409862302587384,-12.793239379127808,13.675218423296204
9.781452628384748,8.825745813324627,-98.7407384272618
-3.123019560628391,18.00001230476112,-14.29491516504107
-7.771124043165326,-2.4124491603780793,-27.760123857121943
8.72375809772012,-5.308623188934942,69.107852089866
-2.3203199054609214,-3.6120169378373825,30.23137715235597
10.510032136919785,-15.428972676368074,82.15061617043044
-0.024009202342797648,0.03578963069148501,-6.529989746511862
5.890541150433336,2.3409143851087717,83.01613316135446
-5.409401882327159,23.721688706398844,-4.575783464033654
1.461510233255381,8.647652768417167,75.22176139138963
-3.921704507170249,8.010280080340706,77.93362279402436
-14.073943823231183,4.996301384024558,-81.12802381534962
5.0709745822500025,-22.10335099829962,1.481955113246321
-0.423941816552884,10.198970249030932,-22.15840252304876
1.382114244694546,12.289774280940867,73.52370217381304
17.10620741153046,-15.615865735920934,42.33443012093245
5.504981368751564,-2.3091629419258215,-23.420998768170605
3.24186115327279,1.3984922493618304,85.16198779419354
-7.225944465610705,0.39631105982261083,28.833068567363853
-9.32521129908883,5.750646166426868,77.8174616624687
-3.9308411616467787,-1.7712215858004763,-93.75778749160622
5.644734358094847,5.976510319379113,-16.824916887256002
5.859051036369662,17.516508804140322,-83.88806895320808
-6.988324405056577,5.871540576777949,73.63178455167105
2.720776688927251,15.1431892134744,0.13606713609073914
-9.372954877276072,19.356018387801946,4.834143762943035
8.617251281132638,10.608545423717304,-52.29569793833618
4.43237215033631,-7.693876084217401,60.57327737052546
1.5147460256645826,5.414020992082729,64.47360520787164
-5.132493898965414,6.567248880562178,77.24054036282628
-5.778013372048075,7.501007544902537,23.456686460754465
0.054540697050836646,-12.762673542434483,28.131827894913048
17.38606753576445,0.5625504809490156,85.52536154463087
-2.3132341375405234,-4.984558632239691,-42.202143070149035
0.45900345469962883,-0.7948920501089181,-96.75581289812264
13.618415816556128,-12.782098989649713,52.33381317707987
6.822120260161183,-3.361027142553716,22.20922139247182
0.06890325782101428,0.3169100656685248,-19.287631591702667
-15.04923224386099,-11.785176180727532,31.727212354896654
11.724157156334384,2.871001289801307,47.85055431352103
4.210969332166474,13.550824204531946,3.8683071861767697
7.7465292039092315,-11.135436120669064,-35.0609753817773
5.322743996795,-19.15075741566888,96.37300148011009
9.301606461352408,-21.365537968173598,36.475572924318655
23.746445262871358,1.652315221690625,-78.18077192885931
-2.482735789466789,-12.646386588360127,-2.977109169851087
7.5740057567879475,14.44122594997296,-48.50481530208612
2.434521987238621,1.0177756444080244,-41.23489901976163
-3.783515719189411,-13.56097261849629,46.081317076632025
-9.313831314716493,-18.098489780348878,32.52726061093195
-0.4444470301241746,-3.496387528709762,81.41819786651209
-5.624558606896269,9.405861563857032,-77.86105971693765
-8.953055643450055,5.122628990421198,86.13294815461144
-0.28501652059452925,16.015174877393083,10.61043274210065
5.480405799293356,7.5967034077311055,-57.34849550150339
4.38230256174504,-5.596559265044697,-28.014068148028553
6.058073483647704,-7.40517393562852,-26.473536139573906
-13.95361528805088,-6.532089464387202,33.925537330243785
-8.090376682482393,-19.565486005485358,-57.433761286143735
12.371014476937221,12.171328746772115,-53.539746158760224
-13.8894254532975,1.9667858334506771,50.302286056053426
-14.842905802092147,-10.879558761678314,75.75297734404188
-12.934199637869916,7.340275257461413,20.94460283235485
-0.0839204492623919,8.42526223890805,79.92089347052142
8.739545508190096,-2.9718150389919895,13.182754900911231
-2.618649116630751,12.415985248693897,-14.16328959974614
-16.444891571922756,-4.5433596485228,92.98876203708024
0.3180513493818233,-8.666531111041673,33.873892732520176
-7.180577267530261,2.488347713758533,-53.484206218816645
20.694196875989007,4.291592746697273,-54.48040606923675
-11.61682856882199,-12.023938588731895,4.728193889636426
19.73345632317007,11.112086118778686,9.131959514417455
0.3463003365202452,-0.2567198272662903,47.00433029327018
1.6706648860349664,-0.06194446801975271,-22.413005755209213
11.745843394980492,-19.62063695273022,84.90341038133316
0.13593782449804467,2.397078730642156,-3.6866315810429144
2.390857599135587,-19.254026532724925,95.43909483135019
1.0678417454841524,-0.3917336393867683,59.05350490700319
-2.345036217235178,-2.3674811901476587,-82.39854000591306
0.08775343376510092,-0.22992082296080715,-27.842663911493275
-6.366020750620203,1.0075345814038716,-17.76809408388706
-13.04531436038833,12.649266632463032,79.17113720230971
-8.216008947861468,10.827933194878621,-52.531866096975136
-20.516024140680372,-12.485012155717106,-12.071637597763713
-3.007547861529271,-0.952656136959118,-1.8595761218296714
5.044029812066063,-21.35847737818417,-67.97271675887502
-0.8943774779768349,-0.05484223842496355,55.99666943770527
5.087550372128304,-0.8674780357589813,3.49802282306308
21.688163581583915,-11.9850997041551,-5.382614653948745
-5.5945766117542455,-3.7334045733006564,24.84319439382783
5.619753556401783,22.14644225102679,49.34148251275006
21.022531753230894,-2.672374874618847,-98.02972850783934
-1.8062739499627603,12.281610545869082,21.724125665938807
1.9075128664441,-0.9484080621968148,3.810940002012902
3.1688130721018175,-7.059900365717901,9.592118944735306
5.891626124190828,21.892490434751267,-42.741419485098895
-7.971016722338989,-7.1986706894829755,-84.30956487622348
-19.597116131992163,-6.5076367342060575,54.70804714525123
16.907066221916754,-0.9233524884859388,73.41977009001272
-7.718360390071734,-19.38772181802375,36.062324833958456
-0.38730046458654216,0.11816997511512745,7.524133315282469
1.2133713945046625,1.7496633291188601,74.32404236164273
22.28903298386906,9.673331197491013,-55.259548839856585
-0.2643976659601221,-6.59041183230649,-91.74729088960912
9.920371657072902,-5.869212146348892,57.9705430884546
9.869549231929357,1.6486044416588905,-44.13278610110685
-8.779625302490672,19.566145459010308,79.30551511227358
3.256692635533569,-2.8153236383121865,-0.5618334327862928
9.44466462835567,2.0619822416007523,63.730863055982546
-4.886783001827464,1.9169552558693932,-24.795700336020364
11.964719617343192,-18.314550381246665,3.3205871812330776
5.872730616489863,5.42216893002388,68.23336379806715
8.794280934195243,-12.358169594332443,-87.89767738961966
-16.977487322440673,16.899446988980454,88.49555249430158
-0.7413850331395878,8.796144122399305,7.40496164177078
-1.0447069144190013,12.13680968480667,42.42275558602438
5.764948234020941,0.6117671032546974,1.4912960404878535
-6.660444145346855,-0.9662825767014057,-4.066528264577723
-6.3825663555529175,-7.89770028232729,-93.78055966571331
3.2569737936165,-1.9678344089981457,23.61067538582369
-6.165083233407036,8.91937663027831,56.51857917305829
-9.699030146887742,-15.584322540955396,-82.66950726450482
-22.297002671933328,-2.5111243219303567,-59.046353341556646
-12.822192540161154,-9.246892903256922,-85.87726583935077
-10.55630076223533,15.214579802813644,34.10176555914936
-20.725462257314657,1.3372947090125933,16.56191972893691
-9.112042802309048,0.9111163231128999,-88.07260646242909
15.277711328533343,5.336967183234982,34.98325429954101
4.131149340117745,-7.659412189293611,74.38073713059732
2.388674189943335,13.306503251785289,62.031114409370105
-6.394256961978711,1.5596361744875125,-88.32059351099242
3.75377969052769,-1.0904353153259527,-81.99148798970995
-6.435670183675824,-21.752324947173573,99.51508849777255
20.9896227835664,-12.394318095091723,9.876819303632182
-1.5436074997822566,4.965422785672331,-24.5736920024013
-0.9769974592793521,2.2325244051582653,-72.96965370782932
17.92074429355457,-4.553246363901309,-36.44528802389054
12.81866018126409,10.316572803952726,-89.07901816889562
5.027549289739683,-11.60208723508044,-9.98391716696475
-0.6349701359306313,2.3402002671910864,-91.6626898102018
-16.48552979381119,-3.97327729586054,13.7305531298918
0.4093393742231488,-0.0371499887746711,65.09035082802146
-21.54455972938323,-4.917905556683583,33.98339605010836
-3.4294408337854425,7.298648461145138,46.15600770089527
-0.5074242914394216,-7.360934264559671,22.828328431955494
13.01925411237797,19.771504412794897,6.49565302972281
11.875422353542204,-2.3024957381869906,-9.922346188718073
4.443326593449279,11.537995085000354,-74.87109386439886
-22.43027782421607,7.353898765908312,78.416520406736
-1.6112432298487214,0.4917190325458583,-47.736820004850514
17.897467862948034,4.809880013475684,40.77335234992743
11.53974902360323,-3.8520130994925053,37.749386655308506
2.4935391216916836,-0.3545976088218394,-56.018363561478644
2.919751416359012,21.961933338859904,-73.82620934538411
-2.1078016497002974,-0.5371103440563522,78.34541112722464
-15.584399793572482,3.1304457377124457,21.876998373814942
3.8864737683249584,10.559073852096136,-11.33615035597797
0.23025043377288126,-15.353991275889799,49.901691118927715
3.964665754923287,4.627002443829127,-70.71427256142142
-6.7197481563038055,-1.3116958753104104,81.57296273143703
-3.9654695749206947,-0.3355704358093085,-68.7070679958933
-23.092296718569546,8.928109192172007,-52.53284775652275
-3.6116031195678513,9.401692127496045,-5.174271933736161
-0.0231254663059235,-0.6414289886013981,53.02631739223641
-2.6126343512250125,20.562582727269294,-32.358355403381
3.5843304580196076,3.228262996046625,-53.23969316076372
-1.6139083816513542,5.246014392358047,75.8724102463649
-18.569693037572495,11.212145718493597,-79.10813473878848
-11.684527930302336,-1.175653881169096,-51.8765190252284
5.55994637267807,-7.290127989529563,-28.870006539076737
11.367402648207491,-5.646293834674078,6.713729928215624
5.699058712285476,18.506543274478496,-12.487157133405761
5.974969464776763,11.786576914160163,48.4653826392128
10.76668265809568,15.288402751636445,-83.33046695007957
7.558734667023866,-2.005929045932678,-39.85748666692769
-6.731601468844728,-5.109781095970989,-20.108212786744105
2.7675317283219503,-10.007431151351259,24.069471924848244
8.551708699409575,15.710585076325218,-15.079208238094047
-8.032911201393834,-17.302426627464246,53.00108603760286
-1.404042089850703,3.0184564605438373,72.5263531122201
5.42855045931735,8.154231275670803,-8.969284804154183
-5.45602405132967,0.5774534808820828,1.965278684543632
-17.833791308577776,6.785307769412243,-15.038714211076524
5.476414286965881,15.278656772892818,63.32033287680191
1.1065937343270769,0.6705579583002564,-0.15224384123901108
-3.8796422335935867,10.876139871648617,83.81194794164033
9.00014276701149,-16.310736632697036,-0.6257804662634201
-8.617595548019862,15.896720049660274,13.202030106634252
1.2338669831899172,0.5780742497347432,68.01840431964114
-0.6255268250130586,0.21633598682591282,19.064064242663083
2.3246804284279516,10.465087210145155,22.765628405850023
1.0088911336135697,-1.9134450621962935,21.889190838329267
0.24986414520397587,6.348920249134357,-64.18672536746014
0.5272874150424365,6.199072901658721,-33.64460859025866
-0.8289963156499022,-3.287004241160418,84.40325232438363
-0.4432671294683768,3.8407053397245257,-47.598952915840734
-11.629711850762732,2.6031510184031568,10.271658078200009
2.0718018633853554,10.114255506784051,-18.10273665122152
0.7022218285509951,3.5937116738622357,67.83174473069408
-4.098075469368912,-19.2164801385284,-35.92595243904795
-9.043609915553828,19.485672908207498,-32.29682535663294
-16.850333436285606,11.368057912861344,-56.101198273530095
10.109625936866887,-21.36646456601783,-83.27402860629824
14.268662157065481,-0.5063795634541212,27.973239217885858
-18.570391252494403,-10.241673527420488,16.288036451918522
-0.18985878335207196,0.2867610755644902,-21.08726396521439
3.388206798364661,-3.3234174160434806,-92.20027991292923
-7.959572284324585,-2.2019759627735236,-34.53441741137651
11.753555282976103,-2.9825704708042275,-32.78187541940274
-0.8077732002185575,-1.7088894036130533,-12.295762832044113
1.8122291292265462,15.461609767475101,16.736519687552313
-1.2030934337542905,5.081598934045037,-70.6539782315497
-5.279852948080846,5.761257967927124,-63.85547159483828
-15.609147867210938,-7.793845664432972,-38.70324730167486
-1.6842204250512964,3.5890093320372674,90.49681851508313
-14.226002596148092,9.587066931773569,73.75891872002127
-3.1324141811355104,-19.860398473437822,-62.08334500141029
21.673535266770767,-6.068637947587212,-28.874694543998245
9.228367714880436,19.01574673389166,88.22911892049973
1.4719854047619303,-0.7295790562937808,42.22123850227439
-2.630369620922663,12.570989761553157,-82.41075369552237
2.817370266589651,2.5051298283292374,71.03674593193425
-4.9998307627535095,17.76387485050493,-99.61775421606045
3.6221768368666543,0.38095680418314426,66.4240143294836
-6.848590534498482,9.030134504516885,-86.69777953065967
-10.844212700922828,-15.673368342830793,-65.12466328539308
-0.45382785713925355,11.36855565520486,-2.902273561717901
-16.773290878105264,2.1008356992409003,-5.351681038053391
-17.242094504269424,4.000270611893552,29.452351681327375
-23.564438225231225,5.103662442920601,75.46478531602338
10.277941394856203,11.271613450913359,-33.691919090952794
-0.06796334553757041,-8.500264957635206,39.565037966405164
-2.4044816801872,-1.0773134929409531,70.25260372136452
4.860209519387378,14.68948029929395,27.81757336605673
-1.103063187140818,5.378629941217342,78.33199157944891
8.86086727811796,-4.953108459924372,23.749299714099013
-12.334943059256151,9.78803920344298,-59.36936465166447
14.331459168604507,8.34489709483178,48.247533135227506
-0.6861368706688035,10.598415787644603,72.77566026247472
3.7219825983291113,-12.2619260853531,-76.32513040526904
-6.730744557213186,0.9262054541038507,26.96096109017531
-0.7028628401201631,-1.2551408050296926,-22.752701469888994
8.296427981046136,-21.62264009686252,54.218623758653905
-0.6652399092225538,1.3267492385895374,-21.652470945737708
-13.020823182478766,1.5031281304432174,-94.54470884310372
-1.7716975188597315,13.430237620692962,63.75824111844543
14.184666476675806,4.570579763199183,-58.60062960152504
2.136731430793738,6.5328513113373345,92.50292220551589
9.464478558871841,3.060936718135065,-75.168301302162
12.426062320098417,-8.195987229091616,-28.29584392061059
-10.009342384509393,-19.850980363569484,-45.80058042619317
13.381767248736807,-16.27802463080877,-76.60974095104137
-7.105134220761964,-2.536121923044959,-2.659460431147302
-2.736490594330889,2.468094244043574,-68.12137010854721
-2.592794233803519,-22.510684833233643,-94.89060642722166
2.922024459272339,-21.00678557557402,97.16657096415724
-4.750631560420998,-3.5541657356528225,-45.18871831705392
4.570518812321308,-13.024248538558934,-71.65830749583077
13.550674814283497,-14.078130250040735,-70.35833073417325
-9.67699014567065,-7.298273917267711,86.91186584724841
-14.157403077882336,2.013029746054556,-50.68980553045319
-21.581089559488625,5.093632363712894,-59.38049609220046
-9.8101131701377,-20.887862976354374,-4.692562011990606
14.483940643395123,14.95870045984824,93.14968343741381
-17.78453948834358,10.872008154965743,-37.02416149004504
14.801924977141597,18.087097474661977,93.8077395643816
1.9451600641782143,-1.437394843705928,-92.14360543922726
6.776724201482724,5.3219272995318985,-35.15281172712648
2.948068377663799,5.261571276591154,46.10881225277296
20.167035340288827,-5.566913401354213,-21.838409851975346
7.142026067958529,-14.759103365239886,89.5987766385957
3.2948207074514313,1.4895607631687682,-43.003502293921244
14.075646284323392,12.11182680210358,64.75124663453745
7.2407776348126305,17.640429492504104,-62.347250887777946
-5.066003128779207,-2.6476149716832507,29.834886225326056
21.861484239810824,11.263261842636046,33.39131653243766
-13.688367798414912,15.04438572682159,82.83205697294437
4.664148821721072,13.882642572395268,33.36864505681806
21.124920038692533,7.78099873282337,-20.195302248117724
-0.11370631788682192,0.12445235680141027,-25.39892542245095
13.729446685649597,-4.891490049761793,70.81823056642803
7.360139348084051,-13.668343170753928,80.44381865279883
-6.395676247994901,-7.118703727960053,-37.750021398114626
-2.982971537514465,-9.837220590996486,92.20281721724938
-13.011447526031214,-14.494471852821812,-48.732843959841084
8.788755967320093,2.4715089655486455,-79.7605186865337
0.9278350978875907,0.29835083024444087,66.99576709030342
-8.993104464328903,-0.5167054468452396,-53.30032351187246
-4.038693627130415,-6.268739978953201,32.799675234804646
1.2911302084480036,2.05405162912901,88.34521549312528
-10.258028089175783,-4.947804877471208,18.985626271963095
17.4275968331106,10.008616622437629,-45.091289024717945
2.9399567279765098,-5.909175525110922,1.3128705812876205
12.259039983573944,14.319407835247704,0.9601666532657387
-14.700310209652198,15.749572551948066,79.58211913253677
-0.2880591949650383,-2.4219364323162553,-58.27410331795156
4.219776040971532,2.5792620448074772,-66.88196295181083
3.359514578090736,-2.2943516210962986,87.36443749773443
-1.065125926355778,-13.122779934582427,-38.3060325913235
-14.004832201160278,11.763422076159904,-21.460970430276483
7.720925910447613,4.384990964158556,-3.8149183401736426
5.047300699967089,3.822470523180945,-71.59577188497288
-6.4905389037551355,-2.437921544471732,-92.93360009112753
-14.973046081126187,-6.498403930313386,75.32704975608644
8.102372895464542,13.411610998779881,-52.21169993610757
-0.15462166240636122,11.579792765130962,48.815994773777014
-0.11769511799277517,-0.8311244501633923,18.723114398633044
19.557962017124886,-9.665960264422624,52.17086928400486
-8.78549791328981,-9.559154903958607,-67.15662998968345
5.031446496091381,14.758493004204471,-57.278092046831816
-3.8814886625461607,-5.398454652023099,-62.757917321551396
-11.154670966177138,17.38235405833481,-22.468945480037895
3.089626303864032,15.886927444048512,-97.43992137044012
5.687642739429281,-1.552671912320193,70.94080779433233
19.26217026043385,10.151999174430394,-2.610815101743354
0.008804054980235756,-0.011629266525181257,-95.59384425623011
-16.980245571994555,-12.087398509870534,-96.71876946215669
3.107283566774974,23.97586895941942,97.37710166676369
12.280113835403538,-3.582159373829062,-15.43227866334424
12.970171018933303,14.928525703739973,12.624706373559475
-0.6304656223998317,-1.514429004155732,-10.593489471511266
-13.069810179735072,0.3253258359426236,-11.578350969588746
0.6528259471727387,0.2787473676632705,-39.63264920735042
15.20763592576886,-11.531358774099035,93.80200255140647
13.459868356737848,6.919765305100484,71.20597844530296
15.376293153033451,17.418449134135756,66.68922466256883
-12.555917172748153,7.003550605384089,-93.36045463843772
-0.4453997150382591,-3.311187735481696,-27.99300463518644
-6.768279234704778,-1.4238397253005746,-11.123169574509022
-0.802451383028391,-0.7034357288158882,-74.90126172210752
0.903942127385013,0.05544562895115248,0.7766096257031425
9.283294326268354,-4.853036599544531,44.904273502164024
-0.5919726818631864,-11.401148064029272,91.22231887075259
3.9253217825607645,-3.4341536037838654,-17.371978307885318
13.710351345664689,-3.9825629677005363,-89.25928587504416
-20.369753727839996,-4.955734356603737,43.44526747292041
-6.015650847183595,18.231670784494295,-7.63356100579315
13.468657289955996,11.905875837824082,-40.78777911355661
2.4053264003897747,-9.661538530593173,-31.109514477536955
12.66025109785297,4.692070091476097,82.9210983527518
-10.040250166189658,-0.08788341800259804,-35.87629053908124
5.448818896832884,-5.6597539704251725,87.75488343144231
3.5647005477613636,11.80776928173203,94.21035641839063
-8.099665745265892,10.416481279101522,89.48049386182323
-7.082967192132186,-0.7475519078586024,-55.88954209184397
-20.71073745245744,-12.83227053561659,29.8669745302612
0.8021018773759501,-0.7841838974840705,97.34067950735633
-7.991353856594782,-0.1027205904679497,61.80763402405122
-16.730643872964475,-5.967487763841314,-3.3698354427913504
4.859991839677507,14.25462011593963,-72.55847643464556
-3.9478477851575855,4.0014664983465105,-80.31589187660235
-4.621834156006523,-7.940523808553088,-10.772448207648328
-20.71451889611433,-7.6816693624054295,-79.18249753757114
21.185792054799993,-8.30235966642308,3.8426740832445017
12.706426576964054,-18.479030059810057,-6.330900858627814
-7.170537082247633,-13.312302875719606,47.14111857679163
1.1037721410702135,0.3249289396883786,-48.82400682498088
5.247694351587862,20.500541438639118,-96.86424752887869
-5.152571997480366,11.479301302128485,71.23691864319215
-0.8854801653148678,-11.648819242639114,63.59476683545731
-20.11759725253393,-13.573420387901214,48.41161184103458
-14.31331110997244,3.9475605915434433,-95.43533586576139
-20.564338377436076,-3.431613881896227,-68.61464688563403
-21.49008499857074,6.083781245806335,-21.887982987704778
-4.146448923398543,-2.39003521931387,-72.5019452200262
-13.340907022007627,-5.595602417748614,-35.42749569088624
0.480170902962072,-14.319513596324272,74.07802182972569
-0.3914366207329356,-22.700408082992666,-48.35966159598195
-3.4053855105117674,-3.23374306362337,92.96487638699821
17.952842405646155,8.717880669602119,-23.178591129443905
-11.99831039572588,-4.893123123528258,88.09176420108035
-1.7154102694210802,17.166176814646374,27.985120979355038
7.200422200589333,-9.405149188805717,-10.686260698628463
-1.0948876110011847,9.342244371571818,-74.35562946944383
0.09095832488591302,-0.12625889599157364,-75.37270910808664
5.325646030624235,13.27996320530428,-98.93970059404734
9.01242876957271,-14.297105370019006,23.325756204649675
4.253902997030886,21.04210417064275,-61.06004621956343
-5.321968594739034,3.6314934228756304,43.57930796148086
0.5524514464133801,0.8355527045346126,-30.46753931829766
15.018061692587827,-15.849846405109375,47.944346282258394
1.1444325669878457,5.101732311750107,19.432582280881586
-1.0056121183364113,0.0331443216985502,-8.768577853040755
7.932823197591841,-11.230748214832143,17.36685046489849
2.1991871561000624,-12.897628843210954,48.702196036994856
-13.741864778972284,17.13145709185587,-37.79499313399807
-1.4975425814956573,2.361823330479924,67.10218805983527
8.920101597885251,12.655753726518949,-29.643273097242435
9.675705361865226,-7.862486810223877,-38.2197864864351
-13.589107572762952,2.493859152557432,-67.78031236150525
4.355445949970543,-5.574221904689357,74.42006033600889
-2.40261979077512,-8.13472162216182,23.235706282073497
4.503024798587716,-9.56651513145599,-1.1887364755168144
0.30586977328283854,0.6056650127391077,-97.77678989178975
-3.204495506393977,-2.8118874317129223,-6.676987169044299
6.3889015312297985,0.9713893822971305,-49.33461780748142
-21.53929098489055,-3.5381884881856327,41.25776975832318
-1.961150908735848,-12.364303425931292,16.661628480515702
-15.596112881926034,-1.8055270594664417,17.895332133956394
-6.003706055461935,-5.425664360466332,-30.093370551705355
7.818579156888261,-1.470602727884626,-48.53895115075508
-0.5820173881653764,8.387314171645581,-94.0033924834551
10.654424591469411,-11.706930107283986,77.2942000526283
-10.46235241954944,-6.956079295755837,77.22264234141919
-0.16309919621434996,-0.5868450220833028,9.343154540530291
-0.05205267121669839,1.7584622753708303,72.22975124005339
5.822564097751419,3.912985740450177,-74.33028203570132
1.9247313550206508,20.35233616266453,-71.44567415971753
10.621488108743142,14.36235560116847,-98.48858817920407
-8.448658999082474,-0.2822869520022475,-22.39619205173402
0.11320889787924668,-1.539002855049252,-46.64551503316675
-22.58563007573689,-7.990794507447819,-54.9732437524783
1.924790514300576,11.45772437589961,44.060216429701846
7.312041940068266,-17.97414436110306,-32.05923676377408
-15.262595818430832,11.434237144907746,44.92873792262097
5.214930717788004,15.127889331419214,11.688746666161293
-10.449100258020545,-0.08958966644501463,68.93202434503436
-1.2872394059821308,21.8802114468404,-47.28137803702137
1.372874382013231,-1.2287457924577976,-99.39649497064109
14.151122100608616,13.923734230969245,40.15127328657835
16.126636923798497,-0.7442729903198344,92.06328384250274
-4.658481800496144,22.203277101970503,18.26926892124315
-7.922394728761706,-6.492535194392113,-12.59485348840806
10.707975006474305,12.061753138414312,-64.16613196646834
-18.8396883583095,-2.0605647243787653,-9.235398851043236
-13.707860267216246,7.3995140675600934,55.31499001444463
0.396337383181638,-1.8732921561224736,0.3472790012383066
-1.5500686326631794,1.9178741441579115,-61.94054363456625
5.426928594827902,11.4363138812254,55.761586210117784
-9.564623992950512,-5.269475431818074,-56.99418940546818
-0.0978378210408332,-0.1835127210626044,-75.89902506026634
0.6154481436351612,-3.118363341620528,-19.184190295926353
-8.83909233704178,-17.964938585946967,-28.354073977459983
3.415718589857089,-22.40021289180237,9.815148072144085
-18.232476350074386,10.199772787629817,-21.786696058498837
-13.293458050035843,-8.085074379445906,49.34694444608302
-7.46088113296611,-16.21945667971799,-31.25497650937854
-0.33312268402894013,-0.4634702986317162,-64.80406324719686
-10.465347232867902,2.5220540027516902,38.87464885821644
-2.4084381492081532,-1.0314898964692147,-42.83884090400218
19.028398682476556,8.415852693663803,18.66341826745731
5.86499629072842,3.9483284560697505,77.65102473134438
-2.230535197240767,10.043435913782073,-61.61040939395096
0.13917183676788777,0.12048486817262792,52.81703921423199
-3.9689884103080617,4.043799598548662,10.796399191583667
-3.7548077432519236,2.2130440725827643,-93.54630833065507
-6.57051799380432,-18.704599689646262,58.00139973350438
2.83360850258596,-10.564269300252905,-38.57699719004752
8.58026582338127,-0.15145046280062477,-85.64673627786685
12.546478056685777,16.23581411221201,41.066903545222225
-11.46640448738161,-14.108307121056054,-90.3875452469335
2.3522659692253005,23.653184238484165,59.578314420358765
6.0820379061626975,-8.42566670495002,23.517428915410818
2.9772052197140373,3.0254418121954707,-53.60671728496351
12.052085089651955,10.150155823305067,11.715129821879815
-7.563700727784881,5.516759287734639,66.80114362125173
-0.15140280202256687,-1.164235237021839,51.5865930611047
-0.8119575608512746,16.447141907073043,4.101432463804294
8.30074515098352,9.727551914738337,-33.41419194845947
-1.561609406769601,-8.05871425921051,8.108731642756407
-18.313322192269954,-2.396514531662253,84.48407004667955
22.287993036572665,0.02887644754610581,35.152836595870625
-15.625038118561667,18.053017157579045,26.85516210870253
-2.8483601514590378,-3.5643614139779936,-80.19425070391164
17.66715970153248,-13.973251583699751,-45.521746298991225
4.70526477882762,8.076938930436615,75.4334128071336
4.556986110127556,-6.252605988263764,31.366418509034183
1.9164422739365254,0.6323250265247903,-53.861560010857126
12.694098013302037,-7.219732583130885,-38.37571724280141
-17.759996002138937,12.993397738340756,-45.83516835033178
6.871378258352387,14.967226182477606,46.89212646249038
2.2211757491208717,5.9637569910133506,46.635247893972966
0.27646882160219693,-2.9297117633800123,94.68278019049069
-16.287622476630045,17.66189633035239,69.605654844832
-8.494969138706564,20.999257192788576,-84.53223097229153
5.646305690079035,-13.248431260605386,-30.313622513312175
1.491885567125018,5.474725299435943,-81.01089576760232
4.761319304629028,2.6729230339513426,27.281643564665455
-3.8084883938537866,-5.378300971090936,79.31279581614514
0.41222763767058745,2.3366889346139046,-11.683225345451586
-21.287752321321413,-5.7523144799313854,-10.610958479440134
8.51403012859771,-21.010348343457235,63.705963197028304
-9.479530993166435,-14.299935408848262,30.61878978753875
-5.4473698201897625,1.6307506717468512,-0.03483826302688373
7.711446910463876,16.12950229025585,94.69909907769235
10.610548905416449,3.663778997846246,0.834963663860042
1.220334832652713,0.023701793426501378,-81.7368203424205
13.270746969122314,8.21335424064713,-75.55766798126649
-4.054793870345144,-22.556960209989118,38.00459720647288
19.136729226297835,-14.266946700123935,62.615306070328934
-7.766824733114102,8.567189489553288,83.90226907093086
1.9158348734715862,-16.224923290848984,37.307847382063684
-23.046944708136074,-2.2672024290507813,30.914018284085863
14.388764376730087,-14.30082713716782,36.220856190032755
22.78065255981652,0.40376133532434655,-43.051514981315506
-19.15010194716802,-7.978154918168304,-63.454494818557684
-8.764517985602128,6.021434674240337,-85.95769328487278
15.427389611484587,15.277868673479075,2.2887064864162365
16.208760116245486,-4.896631579890158,-89.8201352177273
15.38098758140935,2.52774238721507,-35.49042215385254
-1.5594716691253874,-15.06733308549988,44.66691867525059
-17.258247338559176,-3.2362339324156753,-50.37395044944867
7.993387194633135,-9.786396617521902,-11.902849840048086
-2.5157687625390652,-14.276250190742202,65.4784534670783
7.42864148556887,-3.3370014277243234,0.9321022505481745
-10.915817258199317,-18.176463542127788,-75.99914013908257
0.7801616429116713,1.0240423493807296,-86.18818639398954
-11.316784227273951,-0.010381981035420845,-65.17588987247348
-20.268823131152175,7.380542406458057,-39.1522808696584
-3.4115649503262704,2.0146256582878714,-49.17915742007524
-2.4360895271565135,22.241395180832896,68.76910666173632
-12.866726750003428,20.583811784828498,-85.53624431188571
-17.119484710764016,3.2461378679189994,1.77053940685624
6.589038231748252,5.24171433643939,-77.74544451773724
5.929301316900831,1.5185257760169437,-94.12227223570153
3.293665578736383,-24.30220009713549,23.219231909957756
-7.698374398422756,17.050181913607894,-67.0483370869027
10.589684614443453,4.767325462607144,82.95115311070833
-5.622684968647229,4.680660882623522,-71.31692518373154
-10.041126063735833,16.403563812513536,31.139288343730264
-0.40613850373354654,3.0970126373999887,60.48958749925119
-7.434664607955252,8.529876318786792,83.7293835682384
-8.082928898598366,2.629651568166825,80.19028152928946
12.738491020237479,-20.104358595207056,89.69711373673942
-1.3921420309315402,-0.6722387452808757,-46.81591115694701
-6.514444427992678,-18.094846180439998,74.77096808426703
-1.247079219357232,3.552849047321115,31.154957652410566
-6.449684682105226,-2.6241236837592106,-89.90656091164945
4.967159790431827,-5.174045902678672,-87.48834900854041
1.8446036947100781,1.2640979918075845,39.135513822172676
-0.2600601593775588,3.521890871441097,27.52717596490955
6.022357345001609,12.154326955352504,94.41461458371258
-0.2698666971139374,-0.14252533441211362,4.471111459294379
-8.394287350566298,-10.168520405108499,80.70424996913587
-11.923854229145622,-17.775459945173164,1.2710628285302372
-3.603489885047635,-10.015999791560727,99.79255264525166
-2.076175129309496,-0.5749713411593699,84.23116006697309
-4.46158453248375,2.366401813864246,-49.96701964470506
-2.3427967439237194,7.459341330485972,77.0176916611981
-1.0573277587510246,3.2996470465251466,-40.83831342874101
-0.04197849915804999,0.1797722079053953,78.85704781356597
-6.790062495860533,-4.298283294644096,5.887815802461302
11.773627121147035,-18.5691155663933,-15.644085211185022
3.93652661851515,10.617269483625266,-0.5964188751893844
17.53738508501669,1.4288342973223742,-57.68709799566535
13.575828670986473,-20.398105392793326,21.1555301338909
-10.977416225448053,-22.193216849072307,20.78900905242942
17.251361038878922,4.837816967536188,-20.166522470492946
6.816408019034163,-13.643328619658735,20.284675543296082
0.7098284080684129,0.42951000112963345,60.561987641203594
8.638578875164859,-2.075501654469952,-76.74743707522342
-2.8887590155324765,-2.7805213657305266,20.40580453659212
5.212889779542744,12.533116575659587,-28.727750089084115
0.3369066777162528,-3.3876836384295976,-84.47188778186826
-7.3265516826243,11.332190272987967,-87.09837184656
10.494086513329341,1.6542607194893975,-43.71313817406416
15.561598849051933,4.921633091845563,-60.939596471628754
9.642971227036355,2.6438309762722008,74.96640043596486
9.05264042939493,-0.8438475183567489,-8.69644772308591
-1.8516999591018146,-0.2808748975413678,95.13770604601723
-19.059741959230465,5.513156409325049,-76.4611302647775
13.57842448577108,-1.4536081014157445,-73.6328965491533
2.660435471101798,5.848521935886636,-13.415797128602627
0.4442868025231023,-14.903202788245697,-99.83954903380247
0.7656130575515381,-24.95428043078338,71.87456143895191
-2.8860205396592593,-1.0223132150129925,-40.042926370696236
-5.569895595500742,-4.9507662694046655,-73.4762129284553
-4.305029913855334,-11.510223825390264,96.0982032846653
0.5630702264235871,3.7442815872140858,26.475991457467828
0.5100793641588993,1.860793139508078,-34.496103160043454
22.662750396589104,-2.5818139188981313,-74.15098836714856
-6.529518433150275,0.30967144802037905,-7.4519275276030195
-13.693167106336876,15.166972135043984,-61.74142099425488
12.945214704843135,4.44524019500008,17.391844534580176
-0.9561314078851018,1.2676803244068617,-42.232275303203586
11.031266391139082,4.411356883327995,99.45543768647622
-0.08433547848535154,-1.6738579098242024,66.88814502475947
-0.13506854210667643,-18.063898264364955,23.577257759602098
-9.097179327456763,-8.467117275420762,63.166757964815424
4.048436486288909,-20.459362366870135,4.378615351964566
7.630428964234438,8.100658037776475,-97.12139094690679
0.3810248219525239,-0.29056823008834803,-53.43122522524989
9.80629211812422,2.7785473660711375,89.9250447816461
-0.2339449927591726,-6.205561286907487,83.12284423740806
-1.0705048429439041,11.127241199613184,-40.49531491831239
-8.453984413979505,4.117011156390746,-30.86238944103349
-8.127303905823002,6.473154555790957,-95.74699156413806
4.797363461958833,-0.16612864343878395,-7.916726208834332
-12.77865927484467,9.126432585124975,52.77597884350709
6.062153552703316,-2.75148349666239,-68.15848011041933
0.7205622379606876,-3.1591304195644017,-51.121713797605985
-13.831098396099103,7.366802861649402,-17.357494494055974
-19.615634980770377,-0.7903856332409367,-1.9097098349809758
-1.75131968087205,3.0894590147328613,-75.1819526506623
7.759443473296042,21.27089946853975,51.26988353106429
0.1363265210978818,-0.021099646510533067,-61.4805251626507
3.9737938645485267,-0.16891945804826314,19.09149484888502
-3.094401316876392,0.8922483225072433,78.9612527598153
-4.539631366883097,-12.454075927927741,24.23603100953334
19.64625369431392,10.240087720142693,-33.50674282340855
-16.113924628440916,15.922545218235102,-39.61575167754264
-10.828759403835553,-4.416571021817455,-53.088782816803345
-1.5498797628532759,10.695504335871254,-49.031410107262786
-2.772701654400748,0.20632917047814553,18.203277826032444
-3.41992254584846,3.7056847446328476,78.76830961995341
10.210258136479345,-21.436383009579007,-24.12386720263642
0.800180200689271,-0.11561429584601084,-25.24876576123941
-0.10186785412574308,3.276795951211404,73.53958798211065
3.1827457527108662,-4.20318167781789,-86.76860087897421
-10.327630911475993,7.544553276572495,38.92421290904266
-2.0910233162929686,2.929661349463065,70.73488202884512
2.1867042060352784,-5.245797976297281,4.656961659751309
-8.910952406217692,-12.209026650225587,36.63026153982778
-4.579518671455062,-11.269591327679981,2.681095632270259
-1.633159572683295,-0.19955197648323253,14.910684374155684
-12.76861669951952,-19.41515197170025,-93.393654348513
7.256041232279668,-5.358722193125151,-84.43666046188919
7.8977839439016035,-12.653582772351982,-28.06134427037706
0.37070355249487935,0.8487477810807825,-49.14122611487113
-4.35137767555189,-16.5511367270018,-12.605228566578253
9.612870228137245,13.819912233971207,15.141255331925935
10.385206417883243,8.117906086974191,55.529086073819634
0.015360811563908283,0.026323538583179477,-0.410149444820434
15.924283328503341,-2.577891196620728,-57.37577078187203
0.5518215872683132,-3.172665099245808,47.872135517329376
-6.650507619085623,3.036008051389263,79.93582230313416
-2.08906066776648,8.397824792891473,1.007245523393241
-16.54501865206033,-5.183187166286928,5.830278221141241
-7.514079082111771,16.710208750125073,91.72290616209679
-0.15173186225804633,16.479297210097364,-5.907741798071276
-1.0960810694099141,-0.8438849297438927,-11.42456132207377
2.8815263166531793,-0.9356258277392367,2.7987047074830484
19.281183247298753,8.920548814443078,5.085381829615446
-14.322130840635275,-11.578737044889584,72.81878587005596
1.479950325344983,-0.4631049665928385,27.706735831584773
-7.019069060976891,-4.538954570670913,-91.52409283917761
-22.014780550272317,-2.6253714099609384,-66.85266987072005
-2.9225886155308918,10.447076099230632,68.35652058116047
-2.755324834861343,-24.27237586526986,-95.98045030013053
-4.019063618618067,-18.87682494761225,83.08431822819598
1.9446629961154993,-0.044175082576735324,88.33209857424144
2.7285549228378434,12.243792276516658,-65.39063219322597
15.425372672581853,-9.84265610108854,9.218867861198273
-7.572647890986256,15.914602399502927,54.33067382507025
4.8580778881733835,-4.540779928653302,69.24555527904465
5.3580974618230615,18.43105937746548,-50.549634808490495
-3.004374252624435,0.5700415127291759,-32.88322730106374
0.3716445105182811,11.401740487686723,35.65282111600082
-1.9021196706247963,-13.193696390046831,4.605127331362579
-5.857457491610312,7.787344996502552,3.648085549614103
2.670177326388556,11.444230370390043,-90.44053771305587
4.628466137161094,-8.530643026040082,61.80303796034001
-10.47337798898296,-7.849659933698775,95.46532974428746
-2.7020090286341087,-0.9997954932349412,3.8246369986904387
18.466334420816445,-4.058263544196532,-6.118618986586567
0.6759550802692944,0.1683311427379553,22.81883811156703
-13.402123786600209,7.733540596546499,6.441391680392272
0.08592114148229917,0.06417925678486688,-71.95579856188233
0.5886214159868967,2.2619460398499953,-93.59191388895985
12.51503343425873,-17.50452632073701,-68.48264917634052
-0.6369895661785163,2.991524386162299,85.52256632258924
1.076680732039882,-1.0440316919195403,-90.43991345662366
0.4132389523045821,15.853525774300607,12.828624375690792
-8.520257438758906,-10.449400309123671,76.0854392518863
-0.15463316312573272,0.6226078056835869,44.86288316559969
9.310750657707835,1.1172291100488934,31.28074513637778
-20.236624051574015,11.793281448825033,25.834034587108363
-1.5364745328254503,-3.1513342251611096,22.885002617740003
-11.523563257900738,5.037289143807778,82.86295941571515
-9.52247672534902,5.018768008819414,44.424813271739524
-11.317927985463312,-13.405947257303794,-87.32821361510715
-14.907128335135093,-1.8297956022105817,7.735615359262027
5.7898541843595845,-6.016383640585405,-83.8933657018526
14.782064262686735,8.690423091019863,-84.22913657651559
13.800633180743436,-15.31769567185148,-37.74340578669207
-2.5351759423158686,-2.8558415257635033,-12.446317546694504
3.811393965720378,2.8141933890523716,-88.5190886831368
19.399599511592147,2.3512266532000594,5.205299015416114
2.1590649772783443,5.227363912498571,-21.171746668377427
3.8740697928198555,-0.709474191573307,46.94433735381768
4.124747705876317,-6.573436054328082,6.855376548800257
-2.672588792295245,-0.2724976976496375,-56.631887463642336
0.0723674081708602,-9.135172466378156,25.963285151440534
22.847845070078225,5.590560690767594,3.5627643691699538
5.388983341772409,-0.4214267779880117,-0.41633299626083087
5.687680253317736,-12.794496879445674,-24.192102870995512
-0.8421968909616181,-1.6838662139190879,-22.881038934434102
-5.789320100107187,-3.3013668080794942,-0.15658309943795606
-13.999957884475169,8.412507262522986,-84.65010698308484
-2.463060639882622,-2.98504764081479,18.637703619033925
-5.675826689078144,14.35783825504444,39.07179586237385
9.346487190945464,11.27636092085957,6.075890323490639
-5.301566597736366,2.8704775185776934,53.391705697925815
14.073711974177874,4.168250617851268,15.342876119611182
6.062225161615796,-1.6566398517380532,-6.304683018197271
2.8920914977083823,-22.606460939569136,-6.8413693686079675
16.037044701868478,-2.208112607041459,4.203769791564088
-17.219465489131654,6.678141266930858,-1.497809454329742
0.8020901273665721,0.35886938173837846,-91.72313200426613
10.053754586723013,7.130792886218378,94.02386218997447
-5.955679322616335,6.434964055990563,-65.363869961716
-6.707547804146455,12.63038114445888,94.17907561281194
4.004364909676778,-22.95541226729921,40.15581306643617
2.899335331732499,-4.458649394586328,56.41543204354799
-3.9382055834918046,-9.385920191536192,48.65281672812087
14.024332344530759,12.459497208234874,5.872672082097667
4.306453287970691,-11.69506519417998,60.15604195237182
0.8053102573260656,2.896189858188237,43.432108995888704
4.566816451682013,-12.056563882465372,-10.16028880659265
6.798031251263214,-4.789995052717195,10.51277813974428
11.25599105652428,-9.48091002343863,78.96704572323728
-1.7912796153127075,-1.696849549782357,79.66430789706796
16.32392741794163,-8.445936831303037,42.84848317821995
13.20662012464031,-18.383406813614048,96.87363092805691
-9.027589434679136,22.216502756436423,37.52635835836526
3.7314185784379768,-15.903343890718622,9.52714379113116
-12.194187083387817,-8.425872334989558,67.48866356828086
9.482159393090507,-17.2474297319074,-83.52575105386371
0.28818580823270534,-1.3806538493496066,34.768567879030556
6.1879976889883705,-8.132882360951115,2.580914499025996
-14.14621114505075,-8.161265530275708,-55.80761578330618
-9.330553583988564,-19.072198310248865,-39.572995717759426
5.140548157596247,12.6331810935169,-60.959470750288226
-3.9451262714082462,12.75503745521584,-20.166068950826663
-4.992451455756433,-14.83831662409596,-30.894201344869117
-5.201796450709509,-23.176294621085628,22.512509939237333
1.6271341430319033,3.3692169100166898,67.90910899287496
7.917939510103017,1.3830860018083722,-51.279459653848114
-4.459643664258534,0.5974974095603688,-1.1144774389423286
-1.2145536431902617,2.981977253231787,90.71484793256353
8.43810087028459,-11.119648621154898,84.27024223067244
-5.330783255990525,10.211269661622264,-98.23194078665725
3.11143765175858,6.095717472665852,-53.01012082229626
13.955226722073983,16.374631914968397,91.82183441352127
2.9193361560237236,-0.2358161240765946,40.39363969628177
0.6449493334124191,3.75969574736288,-7.086828549702817
0.49767938145204266,12.120445083171214,-67.64682486886409
14.624804155716737,-9.385135682367345,-96.4368519364854
10.820590075812135,-10.103101378086675,25.21518033279723
-3.5569927892968076,-1.380390937386921,-59.35720868784296
-4.461151244655074,-9.58732428675915,-8.11783201112096
2.4867203998203786,0.05756831397137762,37.712436549827935
-5.5735383431491154,13.110726584097232,62.09680016515077
-1.9494156044399709,-19.520344843518135,-55.995351387346695
-5.84200190288917,-3.5123128196311426,42.60206364868082
13.762277860125206,-6.914124230802973,-19.71485139298397
-5.349361872427971,-2.2227448056255668,-96.68667128643595
-0.33054373665041215,-1.369527521378181,-10.505850197667037
-3.5980754637331875,-22.102621956740606,45.472970262523866
2.142088377056067,-1.9200461784996194,54.642493056433416
2.53802354873796,9.924181028705068,95.97903952349337
13.80556188614599,-2.0722225693931744,-90.01380857377013
-15.518474106556448,3.635990215890849,-68.59882633185562
-8.401445662247877,-10.780015949471752,41.52364638447777
1.857355307170753,9.128113769351343,17.98795941860569
18.741304889849562,-10.54791785521286,-62.37307532734802
12.35645936532743,-1.3551746340364899,60.64079508216439
-4.104478522011632,-3.5303039752778567,19.566597837504652
2.9449412965052364,-14.240773555257107,-53.11276731852354
-4.515570723920939,19.156409131307704,61.49029855584921
1.3309052371281427,0.39858295046736214,-93.02030277289624
2.7229710397559064,-19.456939576038067,68.11418302529827
0.2480053231959019,-8.769321541553593,27.986612062716954
6.44846258315681,1.0294042790705962,31.598511610314127
-4.399222707534882,-5.167355564505408,19.18033526919552
-0.3632134085474657,-0.7932676361385104,-98.05062208215398
14.115528074084088,7.753726880150564,15.508527789383258
-2.6139429549589104,1.8439861324134097,51.545265986617736
-16.247396628912163,0.20897047491230586,-22.55664016946749
13.462973801627603,-15.75425340403802,-87.56929670587506
4.987869088205062,0.5349997626975062,46.791480787640566
-0.20666395923433073,-0.2455487764993161,74.31910075042255
1.7433938202269925,-2.489111202540488,-98.53765823284681
11.253581027499653,-19.45122162008923,-78.39439533501658
7.666605867979716,14.025200913601845,82.31768123314453
9.036408509528655,17.86707580739176,-43.41823126468564
1.448511478495915,-1.7310691712904365,-23.30493468219718
