-88.12029333945169,-104.58224862117086,-124.2284444683487
-111.66267173339902,-46.65050774386133,-66.80458605553682
-117.01040555084039,-93.20701896363003,-43.39726452544847
-96.8038624159662,-97.23496985736384,-121.99886214484371
-67.81931775885253,-66.40136671421116,-92.48578844453068
-84.48898146771164,-78.7695247561654,-60.75157957707443
-108.84424628564875,-125.99513026510469,-107.2319303062414
-116.28416332541079,-80.3625796917076,-79.46636155974981
-90.84324673386219,-60.77757523059461,-52.183091610868345
-87.75762226646391,-94.01602504493742,-90.71550808858997
-46.56314555766401,-98.60705775099582,-139.48534698515158
-81.37214764209972,-76.19644888077083,-78.19800110207952
-89.54875738803074,-117.08813548477953,-57.78996070957179
-93.620478408363,-71.47622049028374,-111.03612036486903
-80.44806053214764,-79.8954597373844,-96.86532547599849
-110.72204050976865,-72.38969365949353,-114.06576060257996
-72.37801015146498,-87.48784786036722,-46.093983533227025
-61.512441352423124,-126.38758945103663,-134.5895943843234
-121.82124957298392,-120.68031783512609,-112.19745057942443
-76.11958092594209,-93.76630657628098,-103.13070349114729
-103.1471879958793,-83.14595316177383,-121.9274501960587
-90.37927366131592,-125.46461013703959,-94.85254992053306
-86.7196949372791,-93.59896669662777,-51.23421748745423
-49.0491579793499,-102.04630479249843,-46.16285852473467
-78.51332937137089,-82.75687859801637,-94.3681299535061
-122.04325916073014,-93.53988913117624,-44.440551210152805
-75.03288222743629,-99.20649130255728,-129.5188484593469
-71.51271822468205,-73.22804019926325,-121.78159837911959
-93.63406305066573,-93.39455254026262,-73.60640417024933
-97.76263284870413,-71.00574189104258,-109.07632897194613
-58.36943324916913,-67.98434907714667,-117.88489584882619
-66.23886970136387,-75.81158020177521,-63.45430946846297
-89.7022740083075,-120.9130682720525,-112.56958467518348
-115.16116151535775,-122.46747369804466,-67.1847841597179
-91.7099230940191,-99.3738109939839,-108.17055301726488
-109.94757691385217,-125.80546275044786,-67.15421496394129
-95.82256267643452,-92.101724515132,-95.94431477447787
-102.01025816607134,-87.0434980866939,-128.55884098901348
-95.49660511277087,-83.77092194990631,-58.24886792432128
-88.45493298206766,-88.15783245610103,-73.55152598540876
-89.6284030305624,-67.27597533479539,-85.57118715038463
-97.48732943043326,-68.56719905372607,-64.91486120347012
-58.34637985858869,-101.33021759781731,-87.36526737711412
-88.26934907728234,-90.52063703007708,-133.77179387057083
-124.24053923701146,-62.53464034197913,-52.78532228579735
-68.59065435038708,-121.02747252650799,-87.81607050848706
-79.0357079642321,-50.23419497382299,-58.40256457015222
-73.72823862960671,-57.300772005172995,-77.39097161104021
-93.16627261664296,-90.8569480799933,-48.14712684430075
-122.25763264863892,-103.5133161403877,-128.39811017391327
-121.24789234412005,-87.40521108014599,-126.48711929153168
-126.81880526024165,-88.87014110128231,-104.47529046960378
-127.3279869255245,-59.69162250588287,-119.97707278370224
-106.95890223206104,-119.76326591304527,-122.03274384305398
-102.78217509246562,-54.17404826830284,-130.59295447548368
-94.27314604019475,-99.72048793792752,-105.899104016252
-90.25491725793873,-93.01354586639964,-44.85079045059295
-123.36778412969463,-98.9177877669027,-50.507784025843236
-92.27501393806851,-75.60312322271997,-90.38602311141256
-82.69659942220582,-52.42359647064044,-60.367298958587455
-82.1091256111922,-92.5559188981366,-136.12898211580674
-48.47136266218874,-94.56905068638319,-107.19419036692297
-80.91020914038153,-75.15250557204261,-79.56506101263994
-56.29544359260398,-88.77716255776399,-116.02051119950079
-110.54498399793523,-58.75153423438185,-68.876949509519
-55.58248141277375,-118.51732008883627,-49.19237225513875
-59.30706275640523,-75.58774351465505,-106.6484315877663
-87.42253675346178,-104.94645360531052,-76.02088225103387
-110.50633914852298,-129.1975614474707,-75.7989154757159
-102.06929179516332,-96.63652745251713,-55.129584318206255
-67.5714920433959,-51.016647163509,-134.97535484079708
-97.2979941281782,-91.45464082593428,-55.62870647344797
-84.0753968652783,-59.36322657725728,-76.38812681147874
-100.69352963187671,-71.76249974534292,-132.6084317694951
-79.73737117996461,-68.4941895836561,-120.85564161485813
-64.55152381549763,-109.68863570628129,-57.793471978271675
-102.59614978170171,-62.51921810736354,-101.42942010312373
-89.78626759987408,-63.20931473675937,-93.05262685009758
-50.00399568337701,-113.74980557285156,-45.0324067693478
-123.25072167066901,-55.535380488120666,-111.21199822796086
-89.30316779503259,-88.34330941275364,-48.48736096867215
-85.81905828174057,-109.16459391016228,-111.01636352043198
-60.45049112725394,-70.10320262362694,-106.79737955999465
-106.14144236001269,-90.09609899545131,-135.1222980566837
-92.22056776171124,-69.4179701795675,-83.64329180358939
-79.64404362705771,-112.51177422184848,-128.83390750849827
-78.08042795707995,-100.86831352535711,-46.01133356100038
-61.33420973316641,-113.83958550485127,-96.84815243008218
-84.58411089060122,-82.45456478805431,-93.83535440358249
-54.509933712960844,-59.44188707662462,-122.1862229204475
-50.61196247987967,-104.37896004917631,-108.34719541238822
-116.51426065107626,-77.01526564620512,-49.142131768502715
-107.02867250883789,-114.39338028656601,-96.19737047815053
-95.09301161051776,-63.090247440417926,-41.55477423009504
-109.06829621449702,-100.33051096982919,-93.59467156119949
-81.05358764443217,-107.56658968615577,-40.114093132750156
-75.73919222748663,-79.50584057694972,-73.32921133524748
-94.02131276082596,-86.54423506380122,-92.75450247560183
-56.61434003518398,-122.51605484095725,-92.61927812426633
-74.1105096883753,-60.97015030366775,-71.59328981011616
-82.40852996497264,-72.30191108290728,-98.35057417627957
-67.36472969448508,-52.06314617856201,-99.46668961983532
-105.50465370138454,-64.70674413097204,-101.65858716895119
-100.75145308481198,-94.62692512005,-64.58618703293133
-112.41102600196801,-57.333641553741565,-89.79493117781658
-72.01968475689836,-70.81535648248044,-87.45147469245143
-94.8767173240272,-90.78692228707021,-96.53185444888132
-63.44054033553475,-56.35861436715191,-70.49895033531341
-51.62616186513785,-103.47474903870233,-112.72704769172614
-126.53644355113266,-96.95873143749158,-55.936227915916525
-134.37203468162048,-83.57856348697766,-104.81634499352448
-114.08012459736705,-81.02006219133898,-111.55309426328463
-95.91673323254905,-91.1434702037219,-109.10277505245206
-63.57819760387848,-88.15078704328158,-96.68364661135568
-88.5229753404711,-45.73337296245937,-93.71968398919998
-63.44559030807086,-129.1040272881417,-125.20078854239426
-67.58166320341066,-78.43906113904053,-88.09170986421576
-93.44728933435984,-90.85396526272818,-99.66591531448272
-123.50956571266642,-107.45038624330485,-74.52709282646977
-88.51968796566283,-105.18740425091545,-74.79907148388791
-53.5208086737629,-88.60602414841699,-128.5484677946077
-54.395941096514875,-66.308063318495,-108.24693756234637
-74.40313694739548,-103.39277189066195,-97.88164325335076
-81.30335657753396,-80.31718405000697,-47.821893628809434
-98.61147725553383,-134.0753484709952,-51.895696103104584
-71.4323802702034,-123.72735694864566,-115.3694726583322
-121.84396446977767,-102.29924665658278,-101.57046798229835
-85.87961620249125,-75.63643250973152,-87.08034588142566
-92.08161315709464,-87.63851289940477,-109.74224382341049
-101.10732370479951,-56.06935106405907,-68.5621706098554
-88.1459220240341,-91.6417509972666,-119.64458090059549
-82.56787932997383,-115.21349492788323,-63.83822621953464
-88.04349649021513,-61.75639678864091,-67.89040386179046
-129.65369960534704,-116.56397603367859,-135.12372583662952
-95.32224113788287,-96.68828154976913,-107.65907046250825
-84.67154718626303,-102.7365474693908,-122.71486565095927
-80.64188207755578,-94.37636266294572,-109.45714668499394
-123.21501392888545,-81.75291152546473,-138.6793358695465
-98.53585992252098,-86.10334831432657,-75.59983439809464
-117.98803158882976,-86.69676713193049,-83.85937076724254
-110.1157360265133,-113.13356290271153,-128.80123547273422
-43.10901883068115,-86.73320969629049,-99.0949224424078
-90.27948047213414,-91.49081213000937,-113.53080277089673
-88.05314187237553,-85.77417643110088,-50.91423276154699
-93.96332713731964,-88.77442187952502,-119.30334547152822
-92.27608180450969,-83.0997403878694,-85.24694309526878
-62.91879963064282,-111.64560778162769,-52.78167723937392
-62.50843162639781,-51.73493857215195,-93.06229193328787
-99.9253600161386,-97.30136022760209,-44.29029069114464
-80.48950454549845,-133.16016878799468,-109.48165813945698
-116.65471160567883,-82.49731923170049,-102.68282058329251
-95.40677190273804,-85.02667632626017,-124.88885799973619
-89.63059142747686,-90.4196258148337,-137.34393509027225
-89.86410157007282,-92.35348618714008,-64.15610604462007
-78.0128713505154,-117.97314118145333,-62.85903683821034
-44.39746747751351,-107.29034021211244,-120.10453408000745
-77.84454200386907,-70.60178391757347,-132.7160756469795
-87.31125912139373,-85.97493446977258,-93.08112138340468
-111.797965535389,-134.74391254041592,-112.85634270482598
-81.43239821786783,-102.24387296817655,-45.31070787077743
-87.80661025957781,-80.8366531180504,-42.888752504434436
-103.00065106951473,-56.72691577226063,-89.12120380225521
-87.70250252288577,-121.51574271987789,-59.86144161561663
-84.41809081531244,-89.86124260150524,-53.35737332469062
-101.50828759596672,-83.212131097737,-53.62444655935743
-50.97787687367383,-91.9214325287699,-116.38410308023681
-104.30099252190503,-95.07884375012404,-47.74318773832378
-75.88802807069347,-113.74555280914859,-47.286907053002814
-86.56091900199958,-48.69586393791106,-51.17603449819742
-72.77844449169575,-87.34509597577993,-78.00591659104435
-110.4897197059409,-112.76186195871611,-131.0002049644099
-120.7434769402482,-112.13512855274254,-109.05447402508709
-49.49190025888073,-95.04918097763407,-54.044314218640714
-108.71831433354023,-82.70230595792805,-124.60489283068046
-111.72855004995151,-104.69406892137255,-74.64206535353567
-47.935548840555185,-82.6098751810295,-100.92499952764939
-101.54934161467673,-71.2571595007164,-43.83676479846564
-115.59689856288026,-106.00708518640408,-109.04765176516318
-102.73557489045768,-88.41658856628196,-118.04136696853416
-106.56606987860926,-97.58871332445352,-115.63664378240236
-59.61114721094641,-105.56493446464893,-131.14785355406505
-92.29857750715445,-74.68658248928904,-118.40811933059314
-120.85812048004239,-102.65316091378178,-76.41593682127773
-122.7374329133148,-88.76446873003029,-123.69601591544604
-89.68511941385242,-67.4860177800315,-109.94345355476852
-105.77792667324053,-65.00889849265684,-70.122428697577
-87.3149600238677,-43.2867971603512,-80.21967504101067
-80.36549568902572,-100.04070261893715,-137.7578673844673
-82.73023644437347,-120.9876202610146,-47.20058213475557
-91.49006782380059,-71.04280404142467,-121.03862351064672
-90.74883392813562,-121.65358910111534,-100.80536543398834
-106.74294623528526,-70.7737822690154,-54.05143575862327
-104.4241641740821,-72.61933693149945,-80.4261882915355
-52.15766448553377,-57.57446333324608,-48.493580396731815
-107.19022338518798,-124.06967139497586,-95.23292298172277
-126.57995934884357,-119.52896072849866,-102.84768453156661
-87.8582407506358,-84.76337794712057,-67.08033999205983
-67.49174035764278,-103.32561281115393,-97.84108975970872
-99.41030412368494,-87.2609996988013,-74.03634965431529
-87.10309083586993,-79.15851139279317,-50.34236435956148
-60.81572804591125,-59.82323166409016,-76.83375165503868
-107.40728832432484,-94.24399361736717,-42.945298592105615
-83.47248556390207,-78.29386116221261,-126.0029624811579
-86.77798078402651,-72.18163263129573,-114.38568496989708
-53.68413265219485,-103.88703551297155,-65.15488472779262
-86.6307168132185,-77.49165918681553,-57.82435400885854
-71.81968852424856,-57.73769311924316,-81.89505305558451
-135.48821437219664,-109.56234211288445,-119.39969817735468
-87.9240532893884,-91.33531789614668,-89.57581753696954
-82.97274853970436,-88.64623579518474,-63.3674825735002
-123.54445427642847,-56.247134657496545,-114.19201345349873
-83.8804934461394,-116.3079830649485,-91.62449149862317
-93.8819781173201,-100.83571862867387,-113.67541435978637
-63.34342557117985,-104.84933385586885,-80.62680294208278
-90.08364807276742,-96.40311490608597,-55.29337208706083
-90.34430893677278,-76.94406796892729,-74.21748123629301
-77.67436459925972,-85.72950302918937,-55.51377214273441
-76.93853878000235,-90.01905451594735,-107.06973023004775
-83.17431948551355,-101.41663688251136,-79.67478009109338
-110.77679676876436,-47.764053322317686,-72.41412083449147
-55.62361236744287,-119.18561319389781,-86.24335963910734
-100.83484064133195,-60.2956987560631,-127.32846759493194
-91.91996704856332,-79.72587075346357,-60.40607915751459
-106.65155193471549,-106.0346731084706,-60.08780077089381
-107.10396668384175,-73.38652777846347,-93.58870213283011
-61.875223730566034,-95.5622635265612,-41.76660956735928
-93.03783767421179,-111.20666667846028,-137.49798681172018
-89.05289307935695,-89.66211926879086,-92.97257144621486
-89.90428195851833,-97.5372986488177,-62.25686368592747
-112.06392843358472,-118.27101162602439,-77.76984517625473
-92.88802239815462,-92.64650678490165,-71.18022317934998
-46.7281222900098,-92.16852270021754,-134.69726535057285
-90.92678555342842,-46.47274886377223,-84.80715711256777
-101.511938929561,-94.28888162587413,-96.69715875790735
-69.94144878155,-126.60960019273816,-117.88346356808457
-131.39317862529379,-84.29746853932538,-126.8411623022217
-120.05331302254085,-96.71912042100104,-56.669739845828815
-83.45273999338487,-92.12587412895468,-93.71669729960416
-136.55676052915354,-107.72181453477577,-121.09342129066525
-102.42125472425901,-79.2670828789891,-89.31311055065676
-127.46005668183214,-104.43266753331858,-117.0759411182431
-95.92821026371428,-79.94550816250427,-95.99933329175389
-81.71507049271358,-52.27877018392988,-133.80076446059024
-107.74060155759588,-110.24960916826663,-74.12948509397835
-91.0548037872009,-88.94462489715401,-139.62785751830057
-69.62635787416124,-50.40026275743707,-54.560127058077924
-90.71928031578243,-46.07875880834256,-55.878902133895465
-86.51089314563401,-87.71895430049746,-67.63503355780561
-60.41828719709415,-92.97456257602819,-44.83732455349713
-106.66297103846567,-61.12218237048285,-110.2126567862784
-93.06503727567556,-74.6283287376083,-54.51262355653577
-80.02692627077376,-90.30701410024308,-124.50667412180113
-84.50361450703589,-41.58638215081807,-125.4204548819273
-92.9301843533209,-61.735053924562095,-86.85408891814626
-98.9667575232349,-75.25318768196068,-103.30118218639508
-105.10014129670837,-118.61242035318944,-134.24837478742268
-55.76498587635698,-108.8051532162997,-77.67003123196956
-95.64968944681334,-55.76646974280999,-41.446580533352126
-71.7763137131535,-100.8195405973539,-47.65827381715998
-92.39694508020766,-93.22606459191503,-68.50976361110929
-82.08025210409605,-117.18244133370888,-129.69168050932473
-60.28335583235042,-95.43487871330336,-97.95676048755442
-78.71570042629592,-82.78757493464359,-118.67822695896466
-51.329413633258135,-110.76062308532782,-97.68680518773422
-134.89080475159778,-79.78623219316779,-46.782040088677284
-111.85814020844919,-96.73933989361772,-76.63628881718358
-104.02474543546877,-113.85628576225623,-59.70589647135507
-74.12407382480255,-126.89837981213046,-73.12130200871364
-78.82258244746868,-68.77181496804943,-58.61621739732478
-78.4008433856061,-76.95000543519349,-115.5533325089267
-79.81138262130291,-66.99475905313706,-78.09777189408604
-101.41305288559745,-94.21190682150007,-52.44424754896144
-92.10546864868515,-54.48051913616763,-60.333325731702274
-89.92287857134873,-91.91948177283169,-100.49705966048295
-84.62602308105542,-75.76253451161666,-99.43088784912518
-90.0955207571295,-90.17625917218231,-55.49292057139412
-114.80443166518107,-94.57809134758018,-95.20962837203813
-107.4104271435294,-64.06369420440883,-101.02895101693713
-99.66311334940353,-55.24866168280233,-71.43317153939418
-105.05622025477358,-83.75437572460923,-128.96880187364846
-92.13568623423069,-88.21838799256032,-110.8791928115543
-54.66586078833372,-61.67389968541548,-79.59295284508693
-55.25829691580924,-99.61370245817659,-100.52770568396619
-75.33939441706968,-68.10453354420757,-100.32017866871381
-43.00180245874659,-99.98991934122476,-88.54995853669475
-107.48732169106748,-109.61380450777253,-78.79331001182315
-71.43322750039805,-102.82667695377096,-88.48516940440746
-74.29707742102202,-87.62885104825179,-80.36474690318198
-92.37699576668933,-86.80253803927907,-99.45444243896145
-131.18858690664194,-64.8251530068248,-74.90671202977161
-104.85771742198799,-121.82549895464287,-69.80703162279106
-115.52745803208659,-101.48385549979665,-114.99334453623084
-107.38861092499857,-44.72898690296964,-119.5109101998338
-68.38068733182843,-119.27029934108256,-107.82286044260357
-83.62910459504275,-120.53275630758314,-65.83715936788303
-83.51301561326882,-108.19842153020394,-80.64216397518373
-92.87649116660918,-82.11919497580134,-91.88790836140548
-89.78487191783174,-89.87960735325807,-78.47156258268568
-102.37326989840709,-132.0590409822097,-70.11583428579073
-48.41361944455848,-77.94747764383163,-92.27358784164605
-96.33709623571924,-51.84161438892341,-105.79328222542621
-40.70085848985165,-87.05172103598461,-45.86593896792705
-97.50953008246157,-91.35383702693024,-117.63443994480718
-98.9749359296763,-87.71155212026152,-102.09944396709147
-89.54160152586064,-78.83372254813206,-69.5029182578646
-95.02855687417045,-98.72133602069393,-65.80484821981312
-52.17974685609751,-100.10278389762442,-47.821141006546114
-71.15883168324956,-75.68200208873452,-122.61736279591071
-63.332184498974144,-87.95853755225656,-90.10670453952511
-47.493857019736765,-90.59837658902619,-99.59326023273377
-104.55508782984204,-60.23535357833019,-125.61147490912903
-93.58576650935561,-106.74881569275442,-95.42370735557589
-57.45154487866589,-57.28905500975855,-78.99659304970801
-96.7647800378913,-90.9338160483476,-60.91652580527999
-94.75222774323944,-74.07580335578946,-89.6487870392872
-96.00346530206403,-98.94489290342888,-112.77966530994914
-90.66171817178262,-91.04064812154735,-96.15472942919146
-82.68309723450008,-101.62164407349657,-67.48035635990584
-48.37155487467979,-106.36135528451865,-121.42414192252295
71.32572854847075,0.0,-87.09950338454969
-27.198744867554346,0.0,-19.167464670013402
-55.466380564652006,0.0,49.765781145979965
-90.26305163012239,0.0,-43.59338066654313
-1.0376704748348362,0.0,-46.856807567189755
14.078358947871644,0.0,-20.470316144009715
-47.752628272734775,0.0,-59.21198561328494
75.45093160714072,0.0,68.92382846164013
78.18363728763951,0.0,-88.0227378950632
-13.322369475640844,0.0,29.106419037654778
46.12096459924094,0.0,21.3964397805433
17.20619806700217,0.0,-96.37747446349685
-79.63657619845847,0.0,-57.75149875573335
-73.68741821638528,0.0,11.7003115008722
-64.06316646248135,0.0,-39.52446498887942
41.140403258647126,0.0,-20.420093006814735
60.809583868245454,0.0,54.1496583634939
-88.5395918716922,0.0,30.48828764342187
19.867756209458825,0.0,6.1888616390561815
27.410027808923015,0.0,-82.11905241149465
32.72121305675274,0.0,-95.75245267791448
-55.23396882061296,0.0,12.62007730992033
30.32044260654378,0.0,-12.538280449678444
66.22253476895315,0.0,-92.5038401608447
41.83570918231933,0.0,-90.1785600407826
69.21227067818083,0.0,67.0262152997089
-15.508653861986978,0.0,-47.582553478154956
56.43411432904087,0.0,19.967325754133984
19.420891245119815,0.0,-75.70149346432848
87.60069919186441,0.0,37.27541453843286
93.25480718781745,0.0,40.82946314605179
78.53085802572363,0.0,16.12023070901519
45.01167734845014,0.0,-70.61019586395236
49.39827613165335,0.0,-3.3796171825010624
-3.0766145570498025,0.0,83.26978682206553
-89.16881641179266,0.0,-60.24598391512313
-52.87307140361006,0.0,-61.45766590875539
63.87593607269609,0.0,-51.6327567747731
-53.16450321095723,0.0,5.766690586093015
62.829044760667564,0.0,-52.27960467118306
17.10935426918211,0.0,-62.027449344994324
39.2904836513998,0.0,-6.818531276931597
-59.3997563146874,0.0,-27.016456882449376
-4.611947798719059,0.0,-93.46655553338009
-33.32140646819672,0.0,43.11909305435521
-55.67656041916082,0.0,-82.8475020878226
-42.05100159590206,0.0,-83.16006948374948
11.380119331394022,0.0,38.12292241493889
-44.440815863229,0.0,37.000022658969016
65.08040797684713,0.0,78.20052631078245
14.72114680979177,0.0,31.212645114033432
-40.997338745197084,0.0,8.457734974425472
-6.708537689710354,0.0,-0.228809797296035
-36.768276147592836,0.0,43.791805305925
22.285422700989937,0.0,76.36000300671857
41.55577907052375,0.0,46.511398575689384
61.875793982372194,0.0,-86.82209516955679
49.4975300500211,0.0,-3.177876219897439
-63.063404073648584,0.0,-84.7801775787016
-25.742260341626476,0.0,48.497668875096686
-97.86679208431325,0.0,-98.64941450617877
-16.65300075874379,0.0,-43.33464108889279
85.98298319598987,0.0,-24.223549574706126
4.359385923288003,0.0,75.10210393944836
39.51932747164272,0.0,-13.70269340965677
40.13914081748734,0.0,52.582085967336276
92.69286147949921,0.0,12.35971592352629
-97.30692797300308,0.0,85.13718045428021
71.67854004732972,0.0,30.1584978051333
64.87949558375512,0.0,-86.17798550144002
-38.75606695318261,0.0,59.96197127112376
1.1999385211835845,0.0,-40.75056082845321
-95.313628108166,0.0,-72.26480743835299
-90.73592335572064,0.0,31.697504770017247
-18.69982869668042,0.0,44.34838845792702
51.09948246353954,0.0,-20.16685050550976
38.257831807880635,0.0,13.251517536133317
50.426443762287875,0.0,70.68795859550707
90.5414601748521,0.0,93.35402954582199
95.19864781164608,0.0,0.8958841270596664
0.8648699612608989,0.0,-25.71602267391631
22.579212947236094,0.0,-88.15107877110854
-38.18927808776296,0.0,13.275260300542529
-53.27077617467677,0.0,21.05956942033821
-25.021591931003467,0.0,54.091228491517995
-33.5839489768036,0.0,83.22822831009286
59.648286933648066,0.0,-8.604822787303263
63.5314246534027,0.0,-78.00990324691718
56.346810117053494,0.0,94.42025702933671
1.2597552410163702,0.0,60.017908714058535
40.346722273524804,0.0,51.64438191908398
73.49020294031305,0.0,19.172038726466045
3.3048654088533818,0.0,-39.30995555009137
-92.34181194068199,0.0,32.953936048512574
30.208409472076635,0.0,-36.613706737806275
29.38434761066242,0.0,-35.126068270677536
11.134702421999775,0.0,42.70622908885932
5.1284338704189905,0.0,-61.0852734862831
-72.4820786154703,0.0,-26.41158231662759
-2.3634745372211894,0.0,95.59073870299065
-81.07190407959646,0.0,-83.49137623143031
82.91985736177803,0.0,86.53325830775073
96.1823047017879,0.0,78.65666914061232
31.326876154306444,0.0,-59.8077596399128
60.209002576658676,0.0,6.755297751580444
54.28468424207507,0.0,1.1646110606086388
-48.04740262568078,0.0,87.19664456608534
-75.83636522681117,0.0,-86.7171771986255
-9.99277291962262,0.0,21.58900730452967
45.6555248761914,0.0,97.05242125839888
27.23862628570945,0.0,-21.484031532044547
16.597125446042092,0.0,-86.98909923566397
34.32253065214332,0.0,-69.57788219447527
-4.238500023990886,0.0,-91.11470111292125
-4.286837947519219,0.0,88.96249223108495
26.389058606043125,0.0,7.791126511424807
97.00213001318168,0.0,-75.36351819208538
2.6797224686495404,0.0,20.284430665133755
82.7924157054588,0.0,1.561323564346829
-40.99978483161044,0.0,86.04756457997492
10.955545705429987,0.0,13.889771157208115
61.28160094010362,0.0,80.03837704052631
88.39516744501658,0.0,38.59658901236634
5.445699022807983,0.0,-87.13967801863132
-77.09798771183557,0.0,78.43862288002916
-61.39808604883809,0.0,-6.980229089319962
-52.49599565137466,0.0,74.25912241579826
-34.00206121845059,0.0,-14.748798584506714
-99.87795694396121,0.0,-78.40608252127139
67.54190993541569,0.0,10.541025828231845
-70.70708075088604,0.0,0.034244647812848375
67.06541195968228,0.0,-54.2069219774048
-25.348258064230972,0.0,28.072572151903785
-33.21518986867096,0.0,-1.741676263552212
78.41388179545567,0.0,47.866624346754676
-26.759971441644108,0.0,19.085415135272857
-54.92083215663365,0.0,62.33423791011668
-75.20122835285329,0.0,-88.91514939821445
-26.06532296550645,0.0,-40.304185856897035
71.75672321012962,0.0,-65.20114064586255
53.21757712189347,0.0,-62.2503259046446
80.74601637422553,0.0,35.78209085887905
-19.85282677313635,0.0,49.826917740250074
-14.920498408217378,0.0,-90.98000116797131
-74.82913731905718,0.0,50.35104859813434
38.428367127645565,0.0,75.7914053885686
-5.573417822750447,0.0,96.29171007031607
38.85595769051305,0.0,-6.6161152936621175
-53.614965949349,0.0,31.623923560982004
-47.86090055798288,0.0,-41.82940220579501
-14.826523203335784,0.0,-27.24497978915588
-39.05142863170459,0.0,-70.45478829220995
4.984309860912511,0.0,-31.168641806333003
24.27285850417431,0.0,-92.76385776793751
-72.65345927336234,0.0,-53.211232981539624
39.26996451771068,0.0,47.04415694590892
40.74591559613551,0.0,48.31633733854544
-15.933628742147413,0.0,5.35661257365199
52.77577889266878,0.0,-49.06426287978461
25.926602436999623,0.0,3.3687417574199094
51.19551244635259,0.0,8.355309397319855
-98.47744589168427,0.0,-12.748586996827346
96.11030643296608,0.0,37.254091335297865
-71.45283911271991,0.0,-51.582375410427915
-11.70336314817305,0.0,71.89023834517879
9.3111572649891,0.0,-17.848354286498324
-71.79784621127426,0.0,55.39571418517715
95.68487958513658,0.0,-14.437269784224549
74.3573398222446,0.0,-87.59175531967811
36.539577697659524,0.0,-52.99654057671918
76.33473112994668,0.0,-97.1946972899471
20.621918556703815,0.0,-5.411306248023327
-62.94203614598043,0.0,-96.7307526914406
-62.722712058990226,0.0,-73.19153839263831
41.84020833327605,0.0,-20.164407598585505
-43.448390234432225,0.0,0.3822536815962859
-15.936981922313876,0.0,-87.0604966984757
98.99273083326221,0.0,25.206891015362288
-5.640920439236816,0.0,5.224261918125068
-0.5851667565334916,0.0,-25.698820577033725
-51.225690028442926,0.0,-50.1511794019943
-30.49469731089537,0.0,67.33025290040271
5.710899674482431,0.0,-55.66502220823892
56.708569878549106,0.0,8.966751403329686
7.268794685519649,0.0,43.432365696870924
-2.4272891575716926,0.0,72.47153633598641
48.360254804736854,0.0,-31.498865284358985
-35.50285584856014,0.0,-60.19401622094331
-37.30795513688604,0.0,27.7001045950205
-51.560991460818194,0.0,-54.894337384341576
-38.139803417757065,0.0,2.6884872147412424
43.63627613758931,0.0,-52.587472914160706
14.023913370258928,0.0,-0.7136999968148382
9.349600673726535,0.0,21.804896253230567
-60.59534617498272,0.0,-21.72896966261211
42.654571423495504,0.0,-12.242111093634897
20.428490215344187,0.0,21.6785178382202
-26.889190971996126,0.0,53.51027103308712
-40.469899640562865,0.0,4.304241091037636
97.94548647897193,0.0,-91.93573620131444
-56.343362408592114,0.0,97.47179872579254
-19.64520812211392,0.0,-26.88408851783845
-57.73199892104698,0.0,52.79943278718447
-23.357829459157042,0.0,-43.790231845843394
48.266750982609445,0.0,-23.538013743620095
-61.11547000533098,0.0,-56.4352959896485
-27.788170150434905,0.0,30.470516904224574
-25.960784553925187,0.0,16.102819337415745
-58.514469622322615,0.0,-65.09516576882721
-45.69814644431208,0.0,-29.180694186176098
-81.78447517564011,0.0,-19.684031868682343
25.485902359798956,0.0,13.64690495028075
23.896017077643442,0.0,-31.27449730025497
-24.340056357634115,0.0,27.87626912946396
-61.74002043580592,0.0,46.36084176025774
-91.1605951803415,0.0,78.59352309334497
64.3731739764083,0.0,67.24038128586072
-7.830023827484245,0.0,98.10708589651705
78.88739235155441,0.0,-90.60291745927957
6.705782259650967,0.0,46.645658333716774
36.195401795083896,0.0,1.2278894385072354
-22.64880942219417,0.0,52.449010024565226
47.5000416218864,0.0,-38.44541633813687
13.42975032239227,0.0,27.77575994316827
-32.45510751057349,0.0,22.42159092392304
29.595404382426903,0.0,-55.860781403180404
-28.693532259862298,0.0,-95.96713263664778
0.09036273369228508,0.0,40.65772522189716
-59.42230983387906,0.0,84.51910718780398
-22.51322963369172,0.0,-44.5209672817931
-38.63029303344872,0.0,-28.838333203208194
78.11531801860797,0.0,-67.09632329875738
7.2727265940378985,0.0,-25.018622113556464
-33.56580430075785,0.0,34.565130626649484
-17.561920904450762,0.0,-73.16310524027344
-8.62910540532541,0.0,-27.08589200358688
-36.11167468311909,0.0,-73.56069990607249
57.404843421692405,0.0,62.15888529128778
31.63798079979231,0.0,72.04725537164956
-43.63845420760364,0.0,4.86942029184341
-20.630122915094784,0.0,15.616452079523366
46.94596367878582,0.0,-29.418345674568346
60.38390735736012,0.0,37.70186736054336
-46.380820498559416,0.0,29.94393927778272
-77.81203467280325,0.0,-53.6494639166548
28.027679711609988,0.0,12.85487702828153
-90.07297382137939,0.0,-49.919562552830925
98.73200648671728,0.0,65.81988304977597
-90.45777946433354,0.0,-14.731112888286543
-51.14285550114687,0.0,-7.103601766830135
-47.20127917931143,0.0,85.25020513144166
72.47948377999913,0.0,24.435431170049398
27.343282767164073,0.0,-62.1944015322342
-93.34809336263693,0.0,-52.229250065598706
73.22236704589311,0.0,-77.6919561604414
70.4379781540936,0.0,-29.281505788296375
-63.433982596176676,0.0,-2.69793302036703
15.216527456178472,0.0,31.553295872782712
78.62285454543539,0.0,-70.02363509088363
-60.24351741792918,0.0,44.68834588936747
-91.11007141435081,0.0,-42.42912144035428
36.239823812672,0.0,40.6135275293509
-41.941319059192736,0.0,59.469243722782196
16.052146658919774,0.0,57.934046010428006
37.50801283106342,0.0,-58.39693081916034
-57.98525000637855,0.0,-31.645737759314578
21.82343479033531,0.0,-9.401842757091641
-42.558792150493794,0.0,-21.008170074703493
-36.2389462664776,0.0,56.95765336567583
-5.619601181512401,0.0,-7.542638375274355
91.31192745751171,0.0,-0.2838344661390318
-3.6725760863820276,0.0,-21.116840296744616
-35.0009646730429,0.0,52.51978169683545
-49.00470528167633,0.0,-10.593645090128227
56.47800582567504,0.0,-34.041577729193676
41.98848365875459,0.0,49.19513007624982
-47.74367894197439,0.0,92.77242631008058
-69.22288938547702,0.0,45.936567653977946
-58.92124661159214,0.0,-31.486204169577576
-28.129766249111626,0.0,-80.6233522779225
-48.62881688874837,0.0,-63.868559616791146
-80.19437977523928,0.0,-9.743403808698696
51.980105840931934,0.0,20.03148010234804
-85.04101709559279,0.0,7.826634789343453
81.99376783323444,0.0,99.05378262879758
-49.10429936302447,0.0,41.51840629472682
23.413912957486957,0.0,73.18405728788444
63.10378305528162,0.0,15.467419381085296
-36.34368935744674,0.0,-26.04767949732654
53.323398405575404,0.0,-3.6561255750174424
-29.630816401796245,0.0,-66.77882705759863
86.08656166380906,0.0,75.67310724954936
-26.815964830337684,0.0,-39.09996367638852
80.78861567735049,0.0,-54.71427226310802
-58.83962667817669,0.0,16.146465283211626
57.29701796621877,0.0,-21.968530263231603
37.82800673147656,0.0,91.94604055171351
92.95250730555024,0.0,78.61831702916334
-14.766367239458834,0.0,-22.551059583801255
54.39907788997156,0.0,-10.06851482656887
-75.7544003098981,0.0,49.834153751447694
17.954648897684482,0.0,68.12074691055248
-85.74914140937221,0.0,-41.196223890075245
64.17954178208328,0.0,-30.71922908675837
-57.787534054026565,0.0,92.68946081338457
-18.496361393327625,0.0,-72.73655482835018
65.77296031084816,0.0,52.35573346398198
93.34661244683095,0.0,61.38038561282732
-43.499289212359365,0.0,-15.815817608729436
-70.01433648336692,0.0,64.13185878517692
-79.7882046460643,0.0,43.72996456591973
72.61736948607683,0.0,70.28279759821142
51.58488942409375,0.0,87.08191869384177
-68.8903572792375,0.0,71.94077090550401
-26.95495440891762,0.0,-96.4857294617839
-31.12334746145036,0.0,99.66423112472688
-79.26289585203222,0.0,-47.66846795487085
-75.51933494171865,0.0,6.746998272210609
17.305081726310593,0.0,-10.724410322600582
23.337843600663305,0.0,41.34011829970013
-31.4880691065425,0.0,20.588511460203954
22.628789765290993,0.0,-46.28470664592559
-6.750962702516174,0.0,-75.66701821176801
-27.866344397026648,0.0,53.38949143221963
62.55539201797795,0.0,-42.91414923390581
32.801727673890795,0.0,86.36300424436052
40.10447193467292,0.0,59.78722943338312
35.64538589858658,0.0,27.220661103858944
-44.471742276796675,0.0,39.01930046953502
-49.273684312000945,0.0,37.27663783542835
67.09421249821187,0.0,-90.48879194573574
-11.35635433880556,0.0,-55.904758857828085
-39.784684200900635,0.0,-21.705222975651136
41.82446079334404,0.0,66.89434667249085
-53.11231809088901,0.0,-7.325145190868983
8.030310163594248,0.0,-75.20654819219563
-98.54290164525611,0.0,-7.251558405250277
-43.80709002887669,0.0,-23.948616393992914
-1.4577497791395275,0.0,1.0876158678261965
55.11954091685687,0.0,-51.04878687865694
73.24091303191548,0.0,88.4095441576592
41.50783104980494,0.0,34.223483501165944
-60.900445316289876,0.0,16.543619802815105
40.46760757798321,0.0,19.7374819200319
-33.66147135279676,0.0,-28.470029633522252
35.4739420939376,0.0,-40.43563159357129
-17.3894347187791,0.0,-65.98905822678412
-91.25232226077539,0.0,17.1918060637996
-99.53775496026105,0.0,12.9437319758972
48.17255128148003,0.0,-64.85743905903763
-89.10258443281323,0.0,6.564925068574816
-76.05987698368021,0.0,-67.06964283314433
33.16381501669733,0.0,-79.89514943154309
-22.71001464859058,0.0,-7.772871733385578
78.2751807563241,0.0,-60.97336343396068
98.55908155434231,0.0,50.26828507407545
-80.6508744558029,0.0,-49.518384073660734
-22.96719023718031,0.0,-99.02486179702683
-5.327947480085226,0.0,-14.911768307575738
11.835026162524748,0.0,38.42929472538476
87.03506247079986,0.0,74.31751616034964
81.81407173539431,0.0,-34.87730479722034
53.02521450292082,0.0,-3.8738083997837442
22.607206949744878,0.0,-14.806485747656486
-75.28566419456969,0.0,-44.83000427051835
0.8461295217438902,0.0,67.25960515500407
88.7847672286755,0.0,-58.93872763966881
-93.79933931758615,0.0,46.413694141752885
1.5797986392624557,0.0,93.29395884761855
35.525867591076405,0.0,60.78540846871764
66.33027745540149,0.0,30.599952738193338
-91.30874376602759,0.0,80.88750137804543
26.786468387596717,0.0,35.268933005989695
-35.247490108802495,0.0,-99.60480892883636
80.04863532685266,0.0,25.009995960341925
-40.44301738099613,0.0,-48.50242861644505
9.670471836567243,0.0,55.037753909927936
-44.11040468682584,0.0,46.4131564723012
-10.654923159879957,0.0,20.509306640455392
-96.35794248934684,0.0,58.504452025970075
-7.00046788511658,0.0,69.95986267500953
-88.53618623126383,0.0,99.16840363624827
-76.76052442042547,0.0,30.143047345709096
-11.877072299569624,0.0,-41.80125766897114
54.05165523012224,0.0,67.31667663296109
65.91370352043823,0.0,-64.37867464506381
-19.77441417570094,0.0,-19.46341906733623
84.91021791168978,0.0,-55.40237842709451
37.64260018654237,0.0,-33.96430275806189
99.87207866735713,0.0,-32.70824606897635
86.25476513789036,0.0,82.62309159178922
-58.321839640144276,0.0,-71.75385361026616
41.41828326265469,0.0,31.970759275123196
14.863960178688721,0.0,-5.640364117516231
-98.27739110759285,0.0,-3.730435653282073
62.05442919046303,0.0,-43.91593295450454
-77.52210396008155,0.0,-67.62420762538315
60.21651590458419,0.0,-95.2976011891446
2.5081052191764335,0.0,-98.06518887300093
-11.082570332767423,0.0,-23.733015556919906
-81.56343551428502,0.0,-6.992125621435753
-43.389037231644195,0.0,-49.76367493077785
-19.91455696655213,0.0,21.482590000179126
35.43892276686492,0.0,56.45951206439713
11.284562596470614,0.0,77.80506164764755
60.304159424316325,0.0,51.49710743746648
-6.9786090453379686,0.0,56.84846509436525
85.0721542932308,0.0,28.357423737689658
22.731460447787118,0.0,-76.74131736794004
75.07401660588442,0.0,-92.75844369540842
-54.836937987577436,0.0,66.8134693032532
18.85317483169947,0.0,-35.62025956642433
-94.46674918597715,0.0,22.430901941577588
-14.734806520326293,0.0,13.97770028122598
32.657606942887,0.0,-74.50726080626407
-41.678642682287325,0.0,-26.235405528991425
80.15677558560562,0.0,-87.34715171071244
-55.240153753503805,0.0,-86.74343954164166
70.89422378290185,0.0,-96.14694972328464
-59.14535788897235,0.0,-17.78509597765642
-34.28671701406146,0.0,-9.665514078288455
-99.59815133798773,0.0,-2.4695465150228095
3.0378232646657404,0.0,13.709008483600208
-11.267020819300534,0.0,76.85964825055649
83.59946766593372,0.0,-36.71384397897411
-72.35749866639473,0.0,90.3977481253804
24.013354512454338,0.0,1.3150724907061915
-81.72003872793533,0.0,54.82767066569099
-66.94812266890611,0.0,-69.6555268336234
-20.28205881347841,0.0,25.862029739312703
-3.4039438812042198,0.0,92.16610051682018
-25.852198682262124,0.0,-16.601538367087425
21.558183521268994,0.0,97.8695229611266
6.914681815212265,0.0,54.94617584707687
96.23062800622297,0.0,16.51387690900499
-89.81566764127074,0.0,-99.62106681235056
25.12179739889813,0.0,-31.333843471757454
37.67950115299019,0.0,-43.839363304997484
79.76372456445972,0.0,-58.19959928923737
-92.31736335778209,0.0,-37.90360020124429
34.4407182937111,0.0,24.64475354431408
-11.808091701918839,0.0,12.463765294988868
-76.56039066330337,0.0,-94.42127905188063
77.38448855056316,0.0,21.998293518045696
-11.849432567333578,0.0,-49.99928867816453
48.91933858017231,0.0,-98.08876387491438
-86.5311845042424,0.0,17.24987017106107
-6.602053980592146,0.0,63.648710319449265
-38.29327391052775,0.0,-12.59243249356761
-73.10681258367086,0.0,81.4302950313147
-52.10510321572374,0.0,61.41796780782352
50.26593091964443,0.0,-50.08168736541894
40.844044526136265,0.0,59.44613863818734
-32.11544022415568,0.0,96.13607457688373
-83.65969072553567,0.0,13.797127122228146
-25.84917957513408,0.0,-87.6543304612211
-98.62225936468664,0.0,-92.56236459696908
-75.06747475884062,0.0,-63.3172393328323
-53.56491298916575,0.0,-39.378985831879994
-1.0637972368329467,0.0,-63.65604725872872
-71.64616883051946,0.0,-43.704292292917444
28.151980220196037,0.0,31.6090209376313
-22.8156157435484,0.0,76.80575629961413
-8.364354660503373,0.0,-72.73213466631614
97.20689708723779,0.0,-74.4233438301183
-0.880937163776368,0.0,90.22754547033527
84.51870614169202,0.0,-72.48976367553223
-30.504460739432243,0.0,39.55928474197439
-35.91683823871751,0.0,-38.183463025551696
-40.34884327221045,0.0,-31.166532529374035
26.31313911617702,0.0,39.72784773164279
-36.41411267514718,0.0,12.403684404707253
19.217251578058956,0.0,-34.752625315640714
81.17854913152567,0.0,67.61358940448268
58.028389515667875,0.0,4.4067756663498265
34.90269260795299,0.0,-22.663150228783167
-55.15879772689074,0.0,-30.868818219330123
74.44102711184931,0.0,-5.490715910849834
-0.08239055511828439,0.0,25.3114968912519
7.569238516093353,0.0,-71.85160051662574
35.67825116752546,0.0,-29.71724714121176
20.62633740991016,0.0,23.639530178494017
-48.041468802100134,0.0,20.573442972389053
-49.72463806412905,0.0,27.30460341301997
-75.65878878459255,0.0,-61.75132292701014
-52.88388759776424,0.0,-83.23990069003152
39.59334523967695,0.0,33.60480678564089
56.11006952509923,0.0,-51.28660177645198
-6.4811677542362975,0.0,23.106122319895643
-58.55895960808485,0.0,-76.78745135455316
-84.80172280420469,0.0,19.06432491884768
22.65948260782411,0.0,33.80091592473633
61.89838885814092,0.0,97.96853412226476
83.6160166857731,0.0,33.62131917673335
-43.70553214621032,0.0,20.99750153136681
-98.32756010185075,0.0,90.8306967877827
-39.55125572638318,0.0,41.95537797271771
-74.19346167523096,0.0,-39.194720244229885
-55.59713797753285,0.0,-66.92032354154776
-41.22257687598859,0.0,-51.428961504543466
83.84673125054955,0.0,-94.19574512366857
80.51619188132972,0.0,41.534497168113184
69.4872787625597,0.0,3.1601119567646303
65.09785414553714,0.0,61.27399799845325
30.65972027093916,0.0,-81.1054527061803
60.955680678354,0.0,-19.516970730312458
23.13622527395261,0.0,49.5570987417029
62.79713921196556,0.0,39.80339180787626
-17.502388276000637,0.0,44.12462786002001
-31.886773951697034,0.0,32.164609358393356
-15.111012960353865,0.0,-22.725323390769272
5.370968386111298,0.0,60.072367251481005
22.466852981754272,0.0,79.6741924025395
4.72627911916528,0.0,-30.71367778150108
19.16174392086743,0.0,-29.684158669917476
-39.93943523654755,0.0,0.8012369365363821
-27.51611047351353,0.0,30.564653751674424
-30.323468327515872,0.0,70.6999812187101
49.90328484698568,0.0,37.39657412608947
65.5136238718177,0.0,-18.33509448352673
-25.46564338227672,0.0,32.953938029216545
-36.095668296154116,0.0,84.44272395839162
16.469406258996724,0.0,44.735173629714005
-75.61195296566838,0.0,54.43770051178183
-8.871500851358343,0.0,36.30132437088383
24.39831676262836,0.0,69.67074910648735
47.97772279313408,0.0,-64.1657759185869
-76.18954800304061,0.0,88.41241104327544
34.05426985007537,0.0,33.30731435826032
96.77212835611635,0.0,76.32976705775506
-50.172357093618125,0.0,-82.7540039198953
-80.60736203113939,0.0,-0.69908740618182
-7.713504826868175,0.0,70.29744594005075
-37.52331445218029,0.0,-92.22848161022849
-4.119543512562457,0.0,-38.09347984790493
92.9158871725931,0.0,-18.148475515064714
82.03719104002515,0.0,87.59525946864508
34.0428063807999,0.0,-91.1773263974725
-20.820877198966826,0.0,15.81622997795979
-71.87938648985111,0.0,78.71932081863457
-12.51848193972439,0.0,-19.74580605722929
87.96517315273913,0.0,-89.76079494244567
82.80391866770225,0.0,-20.901913223560655
18.394863488149056,0.0,-6.814033307264513
-55.71623710705415,0.0,44.83327497525779
-4.693958971242685,0.0,-85.96063929065456
-56.877440880310445,0.0,-34.873521555949196
-28.579249022107987,0.0,-86.3731395364372
-36.88101512679298,0.0,-68.85819734696591
-65.44251919172014,0.0,37.11231603219031
98.26236189235932,0.0,-62.396271165439785
-18.36441191289026,0.0,-89.92931212122993
-84.90773191285447,0.0,27.59503688785031
-75.29504797683857,0.0,-28.950801887804346
-48.15964529343268,0.0,-94.92320360483161
-62.26325229084493,0.0,13.030289747308279
-33.314206616691706,0.0,18.320405641100994
11.151680130339582,0.0,-16.121469220543645
-62.085858203103626,0.0,-23.656519445784582
36.51521893295596,0.0,13.915673711287443
-7.776175383748393,0.0,-68.25840035921213
-31.630260255736776,0.0,-79.22255988381221
-33.99107232267753,0.0,-70.40592459377375
35.874191899002696,0.0,67.73076732791192
30.72099721560706,0.0,87.0374131807411
-94.51209408912732,0.0,7.954471567969586
83.10999594694322,0.0,-57.618624177477415
-15.012772853771914,0.0,-10.573573183082658
-77.11652614028789,0.0,-54.34872391963119
49.19590334629275,0.0,37.849273901313275
47.2231373110076,0.0,-89.89995419952297
-5.802991750198416,0.0,-15.279828086209529
-23.497365428011953,0.0,66.15761104278884
-57.597472175761055,0.0,11.941126843184867
-40.7274577188429,0.0,-19.892838406430506
-3.9944717080044394,0.0,-53.91880226043146
-71.88448684530893,0.0,84.1813945374645
45.02160860838155,0.0,36.48076451544945
-21.827183510418042,0.0,48.466840137418224
87.17432829102316,0.0,69.42255562278164
61.248835348900954,0.0,9.464515510095422
-71.49795356523764,0.0,3.44598787070153
52.42753907774809,0.0,-12.659802354249535
31.78234821201149,0.0,-28.770249282463507
-76.50273779457439,0.0,2.443729903063984
81.81337632336955,0.0,86.14623636056486
-30.650909634198975,0.0,42.190800110257
-8.697246461012826,0.0,-47.5754284695951
-25.396453362610572,0.0,66.18314310643518
83.2259834126875,0.0,69.05282003169796
46.21861286357496,0.0,19.216504637587366
51.053229620070304,0.0,51.305728141298125
97.71249564756785,0.0,-63.3608659702505
-42.75236432983166,0.0,19.687376824494436
-15.426537681512581,0.0,-54.995103348503115
-49.87383745801792,0.0,68.01444762005364
21.24726950198707,0.0,77.47054432613494
27.328296475166304,0.0,-95.62129102864601
-19.119711362143256,0.0,84.52795734878117
75.61721911517427,0.0,-23.076140261474826
97.8825258540923,0.0,31.89306874783312
56.21838377160279,0.0,-70.9271098481527
-32.638312271522466,0.0,-56.51540343702405
45.99505050439937,0.0,-53.15486044286993
44.96750780536698,0.0,59.16430079185761
-8.682729878563649,0.0,99.00891977334273
50.098480336996765,0.0,-49.90212159502774
-61.609092869450755,0.0,-39.76822390322015
82.92130528617595,0.0,-8.783822433996887
22.63591854261468,0.0,2.1621984775510255
-0.9237794733498672,0.0,57.99995680093167
64.76066597869219,0.0,-36.6016793326566
-98.58809696258905,0.0,62.29765495460191
-46.96375835893095,0.0,-21.27160557978433
17.069655242257475,0.0,-18.0943302602309
43.265135820921046,0.0,-31.953526787765696
33.24351539010278,0.0,-79.54082840027618
-18.569056197249058,0.0,30.801067669921277
69.5059138300736,0.0,74.23569681107169
99.31098042231822,0.0,-35.82022023949854
-19.599075918983953,0.0,-34.635183362166586
-17.18284213772823,0.0,-83.69185474065083
-62.12484563025444,0.0,90.90876182172862
89.48558936707505,0.0,41.57856154154525
-60.896677840484045,0.0,-21.113816817712213
-41.6219686064474,0.0,19.979597868576832
87.96841418787929,0.0,-33.37064828623751
-38.141754845906625,0.0,-33.343037384186644
33.59545276937059,0.0,14.174158040646983
-33.85761617045954,0.0,60.98404066005033
-62.37039711197886,0.0,-15.129765882094286
-31.471870903978566,0.0,-69.40842993848946
35.01736334079341,0.0,-9.924115341746688
-7.147443284399188,0.0,-67.72880870744167
-70.5223290588131,0.0,78.19055394366156
97.72293584557688,0.0,-88.28480048952966
2.0872119011923207,0.0,45.201759339066975
11.37549348242743,0.0,8.413806264999419
-26.215248174513427,0.0,-47.77695564604042
8.595900257116657,0.0,37.12504591340796
-66.53788718574219,0.0,-16.616025190697883
-41.87531001475134,0.0,49.01863294380588
63.92887223433063,0.0,40.147774999920436
-27.193867846177227,0.0,35.70922914288898
57.55916912892602,0.0,49.88957919849747
-8.389905634169725,0.0,75.58444504266855
82.3104122460588,0.0,-56.33510948610891
30.761684794097814,0.0,19.867150805971907
-9.28980445681388,0.0,-41.284023513904735
-88.61583952565462,0.0,-45.66780333647898
0.0509274471950915,0.0,0.8499068057079409
-18.00411079109128,0.0,25.49053786376309
-33.92011079577693,0.0,-68.99390938583693
-33.303168308079314,0.0,-12.082873346043902
-85.04320745523593,0.0,-24.910760361437184
77.1448212863022,0.0,-22.14193949068879
80.4686219600337,0.0,-50.25448916356501
-14.953257721187768,0.0,18.747944738365657
-86.91708637136625,0.0,31.27098214874205
-48.43478152351263,0.0,38.0071331751063
-80.0649567717512,0.0,34.57251398289477
90.4137296396206,0.0,-33.80624379104385
44.955945174939096,0.0,66.58084653648118
26.68143972200523,0.0,65.26782786775826
35.30702560578539,0.0,-26.31473667719493
45.04071975454168,0.0,-40.29523211266755
36.11932093032761,0.0,33.77913002104312
-24.835630927379484,0.0,19.665069975818387
44.94063002888651,0.0,-34.42475750785516
-90.87424758154961,0.0,-20.371607678029243
-49.6678736026149,0.0,53.04733884025609
-50.95614021097272,0.0,-47.303238731155396
-18.083597264638165,0.0,-15.428704717518912
-84.4667125836909,0.0,4.208561721431875
-71.39840405453022,0.0,-33.856139380590626
74.61664557074877,0.0,11.857043142235744
25.751999566524415,0.0,12.046899486749687
47.25882224010921,0.0,34.11640529993824
-86.84350556763926,0.0,-9.953975529756978
-48.015127144931974,0.0,-33.25691826638284
-35.78506426747895,0.0,-65.77007300192957
78.38833042033471,0.0,-14.667627767325136
78.73984897223416,0.0,-18.339183786685876
-90.31368553239892,0.0,-66.85652996630228
38.10559080289105,0.0,-96.41028247630061
38.0537185578982,0.0,-19.9392164037863
75.31054235670683,0.0,1.0342464862637692
-24.447276361122967,0.0,-31.18649996015336
-39.90585646718439,0.0,79.87932743457088
-6.673769167897375,0.0,13.659865323671777
61.9961329466644,0.0,71.77611852865942
30.50771726819283,0.0,-14.511534084092945
-12.975020641556586,0.0,63.950991441951
97.70424520299974,0.0,52.315447220970476
-74.27440407768181,0.0,-18.924581166420285
73.75054770869394,0.0,-37.40124805174604
-46.74144171369527,0.0,-75.93013175911314
-72.56923261917993,0.0,56.22732659844929
-83.39684367256652,0.0,20.876565910258478
-57.747874094499494,0.0,-52.08942869089511
-86.11127579252562,0.0,14.744803856702763
-2.488229498706813,0.0,13.451232334916256
14.082343094655716,0.0,-13.976090122607033
-8.148894686070484,0.0,79.90358777384262
-57.87592072321509,0.0,-48.37540773508945
-97.15213916165239,0.0,-33.69483072835594
59.067577495628484,0.0,-42.69044187775581
95.79521394903105,0.0,-21.25190586668352
57.19582863287079,0.0,55.55282868359592
45.05581247768668,0.0,99.67976195256617
-86.87501993725104,0.0,35.13898932563743
8.428996991732554,0.0,-6.258046246510171
-53.67825504447302,0.0,-36.018453386017626
78.14879530744867,0.0,21.16062993628888
