-1.8088138268679503,-4.979590657820925,-5.281460532981801
-9.092738849684505,-4.582900927815733,-7.682316842942701
-3.944954227516212,-4.377090678007386,-9.959345837137262
-1.7419746542419192,-7.696285306050793,-4.738509026375436
-6.561474820982741,-6.644843750117963,-0.057153374993754724
-5.061476731829166,-7.011866069411807,-3.1268719564047975
-3.8299880199585603,-5.835310320073361,-3.4225282729541164
-3.5696658627013163,-5.874466446467402,-1.7415714514005392
-4.05386938932703,-6.848548258278436,-4.9837193405563855
-7.447074910762561,-4.599003817517383,-8.65689877078341
-8.674860415932233,-7.009582618258116,-6.425371113986334
-4.337298820261473,-6.048586904694999,-2.0356794251524395
-4.545827654340849,-5.008471607924183,-7.343390996479797
-4.23490787085044,-8.300666737386361,-0.17599578799135518
-8.821533509032774,-6.171438552230727,-3.509106794028507
-4.322443445777149,-5.33932294259008,-4.936660120057947
-3.68918380953553,-2.172753692774254,-5.429721235103218
-8.985805607908055,-6.629344205446776,-2.8385005342706067
-9.38525096116753,-5.263086605438501,-6.2994856819387275
-6.300543552275893,-3.9105735100622994,-5.015524422409926
-3.6824810450622762,-6.086066539659692,-7.764708432312244
-4.766922139366822,-5.185876038506122,-4.183250942261996
-6.422988488976188,-9.038987775996567,-8.050189994172051
-2.1984028277387435,-5.134597073470294,-8.63598231995791
-5.821725401587586,-5.933020017223887,-6.329707851862109
-8.848968349093319,-4.2790974043247125,-0.9225614883084523
-1.2272498329766148,-8.188753345170696,-0.010182802310620964
-8.730114470266804,-5.458876040593683,-8.422762605458034
-6.754118973229532,-2.5546753650154725,-3.452811191136666
-3.796829241493189,-4.2033546649692735,-3.5253055306191694
-3.8079376349413634,-8.46410729111308,-5.773075391860788
-5.032250497213115,-5.039955445891654,-3.198845791189325
-7.777181407549666,-8.661216289386493,-6.05784824373386
-8.00004156227635,-8.041964080013882,-8.283829895884192
-8.535906479029746,-5.104101684312644,-8.993674588750999
-4.438655803957361,-3.7008010872759263,-2.2872103051911727
-6.693791179359996,-9.630338367673243,-7.958936211861847
-7.347750029226283,-5.673461805770576,-5.3731807234418225
-5.8616181611243405,-7.7700561266941435,-6.155013383953077
-2.9980095297103646,-4.6502643117489635,-1.3805595811193956
-7.046471732652114,-2.3992654009408865,-1.6248516398978148
-9.686884670831823,-3.6293440327677757,-1.7820060023414412
-1.4288658384419137,-5.297108429684728,-3.124472112994366
-9.228609906282006,-7.6480832802884775,-6.345238005757693
-7.1719576172583075,-8.270339512549501,-2.7311051779777964
-4.373628591227277,-3.3795062468752284,-1.7192787261227904
-4.39784619273187,-4.627672925001716,-0.2788659373619078
-3.467299881802033,-5.856011237804552,-1.548646189199983
-8.580999346209625,-2.6922103275695592,-7.9911968744378035
-5.953432751820647,-0.8545050726261838,-7.028970744452645
-4.738419615960992,-4.3851753437827385,-2.024394460584463
-4.527184132677949,-0.8980446670361628,-1.7169487840374886
-5.635097057625468,-4.539191000862311,-5.491529530024523
-4.527776298611252,-5.711715334918632,-5.020821377722278
-2.9798898640561076,-6.240733144306339,-5.800287481458678
-5.338588290943559,-7.6997327405883365,-7.48609773627134
-3.8272763378741006,-4.7459102887652636,-8.798708293997663
-4.921015363595368,-7.415023019497362,-3.7691776440272564
-5.309504815253085,-4.9820510335288475,-1.047989949330339
-4.531053795576396,-5.375171666906417,-4.704674234074891
-5.248544420914983,-7.1950979494069385,-8.798980303426935
-1.5001426262386324,-4.26142203674817,-5.720481426761555
-2.762752205423037,-7.048800818897278,-2.5929623975641407
-0.5730517240454853,-4.491707577213789,-4.0278605560148675
-1.4027994510998405,-4.969054783394196,-6.656728168239949
-0.8222491393493083,-6.783203688193991,-9.016647393934388
-0.17741396843045898,-5.876654066104075,-8.347723618533628
-7.05434512871187,-4.67440632709678,-6.917115988357193
-6.426461933382275,-2.83407410487955,-7.870908754267596
-7.228577411300574,-7.756496944409934,-9.038524041063518
-1.0756306003983145,-3.059511190822042,-3.0272746236408685
-3.5886297650085774,-8.157796642377395,-9.061482437493773
-5.623873937036445,-4.4824531660471,-8.45302989871564
-5.054040705170264,-5.804990109073431,-9.027680556087049
-5.831773129390277,-3.2771337919584336,-8.522548967251929
-4.849370742446385,-5.00884645876826,-2.9603375486442483
-1.4845342481843469,-6.20636312928476,-9.382989514077437
-3.361386942523325,-9.441946973692982,-4.2321937057331
-3.161141573263712,-7.5581093110587325,-0.6335840195455305
-5.132354571220415,-4.780142504710823,-8.548728983346868
-7.4946523355491745,-4.365999632839129,-5.256752420982872
-0.26596086232800165,-5.713136378786774,-0.4881497490931883
-4.820345768177484,-5.563040687797264,-3.549969578386082
-4.752415573348011,-6.8427436722507675,-6.501711364437085
-2.313215916311564,-5.042903345564818,-4.771613870333386
-9.347359963889167,-4.25287378219804,-6.0667097870285485
-6.739529632821235,-4.13613706588074,-5.762259772555533
-5.010542871906371,-4.992970941783427,-3.9060324494219705
-7.369663290265312,-5.208081858820585,-3.377981095496019
-3.7089734214836447,-3.3250389515583314,-9.376667719362196
-7.414591317815313,-3.4635784426576075,-8.791206269210925
-3.3288789426073375,-5.097250330755687,-1.1343309434627127
-7.2820465000346974,-6.91122058870532,-9.146775751687386
-6.523361732076943,-9.441189838714088,-5.686916622955551
-3.120953615666136,-5.97088500354548,-3.7280829372941495
-7.185656878119582,-6.27989402905255,-5.250965702361218
-6.489882067427438,-9.469267473064285,-0.7454050491159316
-4.800224030343906,-5.062825112522908,-6.864875908587947
-2.5709236653969687,-1.3951774963282881,-5.2842856819120145
-8.054863003016514,-1.6096325593569887,-8.003362748010519
8.354105741190587,5.0,4.561717950007998
-3.814473834968755,5.0,-0.38110196616178804
7.967582498282716,5.0,4.021483581252381
13.955460656576674,5.0,7.683955297652691
9.492502369249411,5.0,3.185905289367861
2.667533365378926,5.0,14.739441342027034
7.901124157642071,5.0,13.229103310560408
8.217748193420826,5.0,0.20747542818281772
2.7601230892791007,5.0,3.664123189028796
2.196298228143773,5.0,-0.8475660675436147
3.9214272764154634,5.0,-4.4767282394901535
14.516675310442174,5.0,5.488701444991725
1.3342830745388716,5.0,-4.218969536289229
5.720064039017125,5.0,12.318593832672551
13.359112495951045,5.0,14.051731897334895
11.600555327550051,5.0,12.41447699477886
5.145361984066705,5.0,0.467072072495184
5.971537925571779,5.0,14.022568865233438
1.8593277602477443,5.0,9.366958427815328
3.3059488651694027,5.0,13.371707797539159
10.265110601352024,5.0,-4.1322357151698235
14.31682009981728,5.0,6.70801035282176
0.3909306236582619,5.0,13.934474224203319
-0.8885714647682743,5.0,3.5233069626589
-4.237721053465146,5.0,9.387570429828502
0.3705452353714209,5.0,0.7478606121327811
12.238580518390338,5.0,8.09558839403061
5.91747385161056,5.0,3.7005819374411306
-3.4884434817450565,5.0,11.095495434638199
-4.704851123207094,5.0,-1.109191771890461
9.47471336934936,5.0,-0.9362686625229788
11.081174041664248,5.0,11.466593186730112
0.042995929412319,5.0,14.966678250205298
2.741801633178959,5.0,1.2378318130100667
1.26540482413541,5.0,8.896903628079556
6.252554528162117,5.0,4.50183570314393
7.757496279182084,5.0,13.425965925103359
8.761364862537242,5.0,9.381890779405088
3.670897699244023,5.0,-4.312539099999563
0.574033734187422,5.0,11.51311077318883
9.423926721527135,5.0,3.104669680356902
10.189525345480249,5.0,14.30779391515226
14.53779640006861,5.0,4.6450739413897075
5.397217155605806,5.0,12.651062734865222
0.302558565401001,5.0,3.345900440452368
12.458921309822165,5.0,7.437000786270452
7.132748952181931,5.0,-1.0136328895288704
12.683238220178186,5.0,5.356737631493423
6.1344657130696625,5.0,1.5856742556040295
13.20228268911589,5.0,5.415304827073039
1.1730846167761815,5.0,8.92684477092078
5.597663676553813,5.0,7.74557945059899
-4.783354321828032,5.0,13.522062175842605
3.1574106091065706,5.0,7.692274135765125
13.180513754459803,5.0,0.9868091261879632
11.010954536301607,5.0,13.665359694428961
11.956865991060301,5.0,1.0914061167773426
7.623087314415861,5.0,0.49267553946686427
6.761006647656366,5.0,6.547571169400011
11.867493166317827,5.0,8.961703196519167
9.833729952474867,5.0,7.6552396301844645
-1.1797635552935422,5.0,5.828015049698964
4.2494289531991045,5.0,-2.1448396760209203
8.549723054795127,5.0,-1.8276107738447163
3.6904919937567966,5.0,4.009328432123726
10.911535410141461,5.0,1.0221256563253527
9.998403024797204,5.0,8.567657198924046
10.827042053816541,5.0,7.01039644257686
10.745627741017064,5.0,13.25920800922829
-0.1388737687942001,5.0,7.694651024671285
0.9038683886143941,5.0,9.422368402666097
-0.20393371882262112,5.0,-4.549731745913196
8.315600723141614,5.0,10.945956088505175
-0.6143145044793963,5.0,5.81881230601386
3.6967123426187594,5.0,4.974128716833348
-0.17398609492736217,5.0,12.138552672209038
-2.7377744247733826,5.0,12.63057423404722
-3.0602323711535426,5.0,11.539089565889228
13.292364741299107,5.0,13.069820144201534
-0.04471020329796982,5.0,9.04072999832549
-0.4975607444634642,5.0,-3.9393776914271683
3.5306471216183413,5.0,2.8343115272280426
5.7698932573924795,5.0,3.5003067138486434
14.52514152240687,5.0,2.4540836275684046
5.3534299332617135,5.0,0.18484151779184543
1.4260637560426122,5.0,10.323843859025214
11.56619429581579,5.0,11.802752597604735
-3.8826391834129907,5.0,7.842609561564567
-1.3252230884584302,5.0,13.146310249747904
5.921938990987584,5.0,13.136211655938004
6.672413745017977,5.0,0.6748675481153557
5.52589161954695,5.0,14.632424063919006
1.3279623700937977,5.0,14.73737212119416
-0.9019633218237715,5.0,-1.7452616204079252
12.08376335365875,5.0,-1.2750992893678035
8.841825307281015,5.0,4.255350569035947
6.079496779261263,5.0,6.979687330514087
-4.934733618060832,5.0,0.039810435209206574
-0.3278543441636641,5.0,10.534681324704437
-2.3449437754168745,5.0,13.574202110110267
8.723634297909154,-3.49587268832453,0.0
-7.7583697948355805,9.269793995251463,0.0
-5.739199636277448,-6.495258607117269,0.0
-1.5645968926134333,5.891163000256226,0.0
5.304901022386001,2.3026891400437415,0.0
-4.256027526335476,0.010903221090476619,0.0
9.068146815387081,-7.199717054378722,0.0
-1.871662939298847,7.4890858430651575,0.0
1.2816301786550854,-3.392906675501461,0.0
4.208772198738682,-1.6620456775846248,0.0
-0.46107523326812605,-9.268644426500675,0.0
-1.1500141007913358,-3.9871836091274107,0.0
-2.6776261752854995,-6.761826080464438,0.0
5.606509453762626,-2.2504280617795733,0.0
-3.0554911496125152,-1.536840506989248,0.0
-0.3295307602324415,9.516401285201225,0.0
-4.954441937961758,8.978348110163303,0.0
-7.446426994336131,-4.942172788405835,0.0
8.71499749507674,3.7215848884980183,0.0
8.392201322091278,-9.574794134324792,0.0
8.249894564596001,-3.9834583414793103,0.0
5.334222741297971,2.7278338179934476,0.0
-0.5976742205355655,1.7498170158030661,0.0
1.8405590161075611,3.8564656300766273,0.0
8.275874007390899,-4.891413730604498,0.0
-2.1916648411812307,7.731009943987256,0.0
-7.985795610644336,8.27400453926832,0.0
-5.88932289830566,1.9819077704259127,0.0
-8.278251212410915,0.5869295272466766,0.0
3.8120032936901236,4.33039937475038,0.0
-8.85574707970598,0.34569315740273454,0.0
0.17222396517244523,-5.229950455615654,0.0
-2.1013052605250335,3.6582341652410406,0.0
0.9879203195949209,1.0915266832207873,0.0
3.977554132926044,5.890048533673953,0.0
-2.1943565051946297,-9.036185441680312,0.0
-7.03677482253147,2.2906826975899386,0.0
7.460182528824576,-0.058658196466678,0.0
-1.5297468331130006,0.9655417306955832,0.0
-7.606378238461991,-1.7439261839798272,0.0
0.5965687630565377,-8.931413244810349,0.0
-7.785196871504586,2.2320684333400456,0.0
3.2422290476731863,-6.4875208330656875,0.0
4.040009644333717,-6.735840903699551,0.0
9.44606831549758,0.6748961706277674,0.0
-9.84625331198105,-1.94301814014451,0.0
-6.942185384669667,-5.230841660749583,0.0
-1.898184196874365,-0.9341828820380799,0.0
8.72181064941263,-8.277592214865557,0.0
-2.927339601621424,2.7963469022051415,0.0
-9.603598184511547,-1.7484621658746526,0.0
-6.200677344996018,6.953788537267301,0.0
3.111078895054891,-5.841360806515886,0.0
4.25580846171709,-4.126263251166424,0.0
4.255260876510954,5.82958523613798,0.0
4.524103335769157,-3.0997277685642044,0.0
5.774099903352622,5.775696432296846,0.0
7.288799166863916,-2.997390494679463,0.0
5.3955284138088615,-0.9870334029754211,0.0
-8.694322982209293,0.19110611920849857,0.0
-9.130050769100029,0.8186656762305489,0.0
-7.344141383151259,4.576878923978299,0.0
0.23911161767740613,4.881025036446633,0.0
-1.0572646640071606,-2.362089231976557,0.0
-6.508312316415062,4.401099201144738,0.0
3.1377907116215766,9.728208526230164,0.0
-0.9293867766428192,0.9709400357433582,0.0
-7.823837054422045,0.7174321865849509,0.0
-6.454302276853157,9.503298323114505,0.0
9.315716258580666,-5.435588107881731,0.0
3.7291246811578627,-0.6757183149316048,0.0
3.59538245874133,-3.4343196815752237,0.0
-1.2499898386291983,-1.347558909324222,0.0
-7.96813945108375,-2.760282541298798,0.0
3.0868921346232607,-5.113846729415602,0.0
-9.899242197227444,-9.929368213058037,0.0
9.146184722428428,-5.16944387692024,0.0
7.434989374703686,-8.664649885364677,0.0
2.5360548233068947,0.4913409101766617,0.0
7.162274640208473,-3.4021011295847714,0.0
-1.4779445608067563,-3.8447713453504893,0.0
-5.616461711229305,3.7604631676655034,0.0
0.6447498811083971,4.742214736838811,0.0
2.6261518015128416,-9.18028001398951,0.0
1.3081972676107998,5.097113187118816,0.0
-0.07417632960313857,7.050358313456215,0.0
3.997918613495837,-4.1810728311319165,0.0
7.625472517968079,3.042647676755654,0.0
-1.5442139299369058,-1.955458843468449,0.0
-2.8163953654622857,5.93589188852894,0.0
6.5250807647721825,-2.16022140372866,0.0
3.806875916650842,0.7558486078666511,0.0
-9.452906329624316,9.291562135050102,0.0
-3.729874139179305,-0.3507159801968141,0.0
6.651588121928526,-1.7064568493363859,0.0
4.852373791049493,1.2507869286697226,0.0
-7.081555477250153,-0.9073975183115435,0.0
1.385670508405101,-3.501618381677522,0.0
4.113792723195973,1.2175163316991413,0.0
5.4920044047027,-4.542927834951923,0.0
